30.81500053 -4.89974022 2.34212995
30.03170013 -4.77437019 2.39636993
30.00110054 -4.76866007 2.48330998
28.28269958 -4.49474001 2.48147011
28.05159950 -4.45723009 2.55199003
27.99589920 -4.44759989 2.63141990
28.00600052 -4.44843006 2.71459007
29.08230019 -4.61856985 2.86644006
28.82469940 -4.57685995 2.93492007
28.78170013 -4.56923008 3.01698995
28.67539978 -4.55155993 3.09420991
26.72229958 -4.24080992 3.03015995
29.88109970 -4.74127007 3.35909009
29.81629944 -4.73014021 3.44213009
26.34490013 -4.17870998 3.23505998
26.14570045 -4.14636993 3.29547000
28.25600052 -4.48024988 3.56490993
28.23390007 -4.47594976 3.64654994
26.08390045 -4.13438988 3.52182007
25.80929947 -4.09014988 3.57172990
25.74990082 -4.07999992 3.64217997
28.01829910 -4.43864012 3.95877004
24.07679939 -3.81356001 3.61299992
23.89159966 -3.78356004 3.66384006
23.57579994 -3.73288012 3.69862008
23.60239983 -3.73642993 3.77188993
25.22150040 -3.99202991 4.03771019
23.31270027 -3.68926001 3.87663007
23.04080009 -3.64559007 3.91166997
22.88649940 -3.62052011 3.96038008
23.54100037 -3.72340012 4.11558008
23.61619949 -3.73463011 4.19612980
23.58060074 -3.72833991 4.26180983
26.05879974 -4.11942005 4.68362999
26.19199944 -4.13971996 4.78097010
26.21430016 -4.14251995 4.86280012
30.17539978 -4.88555002 0.52796900
30.19160080 -4.88730001 0.61651301
30.21139908 -4.88964987 0.70510799
30.22710037 -4.89132023 0.79384297
30.26819992 -4.89709997 0.88256699
30.31389999 -4.90363979 0.97152603
30.33869934 -4.90677977 1.06070995
30.68969917 -4.95913982 1.51267004
30.58749962 -4.94176006 1.60091996
30.50090027 -4.92689991 1.68894005
30.46640015 -4.92044020 1.77778006
30.46610069 -4.91952991 1.86741996
30.40349960 -4.90853977 1.95510006
30.35339928 -4.89958000 2.04286003
29.71109962 -4.79505014 2.10820007
30.02750015 -4.84526014 2.20844007
30.81999969 -4.97226000 2.33118010
29.98290062 -4.83633995 2.38326001
29.90690041 -4.82322979 2.46787000
28.37059975 -4.57463980 2.47588992
28.08639908 -4.52800989 2.54384995
28.06130028 -4.52314997 2.62521005
28.09309959 -4.52747011 2.70991993
29.12570000 -4.69304991 2.85887003
27.89780045 -4.49440002 2.86265993
28.82819939 -4.64344978 3.01006007
29.09119987 -4.68497992 3.11437988
26.65929985 -4.29257011 3.01596999
29.88990021 -4.81189013 3.34928989
26.93680000 -4.33570004 3.19630003
26.33819962 -4.23859978 3.22528005
26.14590073 -4.20690012 3.28638005
26.79430008 -4.31045008 3.42259002
26.82670021 -4.31487989 3.50500989
26.23369980 -4.21875000 3.52726007
26.00830078 -4.18175983 3.58262992
25.71209908 -4.13338995 3.62944007
25.75370026 -4.13931990 3.71017003
24.03179932 -3.86188006 3.59986997
22.84860039 -3.67108989 3.53939009
23.56830025 -3.78604007 3.68971992
23.50959969 -3.77591991 3.75295997
23.05360031 -3.70201993 3.76805997
23.00939941 -3.69425988 3.83130002
23.29719925 -3.73977995 3.93629003
23.29369926 -3.73853993 4.00535011
23.68639946 -3.80087996 4.12692022
23.63730049 -3.79232001 4.19106007
23.53919983 -3.77588010 4.24816990
25.99119949 -4.16843987 4.66535997
26.04330063 -4.17603016 4.75075006
26.06279945 -4.17840004 4.83173990
30.17900085 -4.96294022 0.52965301
30.18530083 -4.96308994 0.61836898
30.19140053 -4.96319008 0.70711702
30.77199936 -5.05046988 1.51621997
30.63339996 -5.02682018 1.60403001
30.51429939 -5.00637007 1.69147003
30.50939941 -5.00466013 1.78114998
30.41839981 -4.98883009 1.86835003
30.24720001 -4.95986986 1.95249999
29.96739960 -4.91309023 2.03189993
29.68429947 -4.86581993 2.10953999
30.04210091 -4.92357016 2.21144009
29.99419975 -4.91484022 2.29786992
29.97080040 -4.91012001 2.38516998
29.92350006 -4.90148020 2.47117996
29.88969994 -4.89506006 2.55765009
28.09079933 -4.59962988 2.54651999
29.28350067 -4.79405022 2.69872999
29.17910004 -4.77610016 2.77876997
27.93499947 -4.57164001 2.78520012
27.82159996 -4.55224991 2.86008000
29.08930016 -4.75881004 3.03098011
29.10120010 -4.75989008 3.11782002
29.12949944 -4.76366997 3.20601010
29.87789917 -4.88515997 3.35119009
26.52560043 -4.33625984 3.16524005
26.14760017 -4.27370024 3.21169996
26.18160057 -4.27848005 3.29209995
26.90929985 -4.39659977 3.43570995
26.22220039 -4.28276014 3.52884007
26.34950066 -4.30277014 3.61932993
25.67530060 -4.19190979 3.62836003
26.30279922 -4.29359007 3.77091002
24.11639977 -3.93596005 3.61162996
22.83939934 -3.72688007 3.54084992
23.13710022 -3.77477002 3.64289999
23.19529915 -3.78356004 3.71861005
22.98850060 -3.74915004 3.76278996
22.89629936 -3.73342991 3.81993008
23.25259972 -3.79081988 3.93331003
23.10120010 -3.76546001 3.98311996
23.70429993 -3.86304998 4.13205004
25.82600021 -4.20803022 4.49045992
26.05360031 -4.24433994 4.59927988
26.02470016 -4.23885012 4.67323017
26.03079987 -4.23905993 4.75213003
26.01029968 -4.23493004 4.82718992
30.16830063 -5.03448009 0.54016203
30.18149948 -5.03578997 0.62879699
30.82589912 -5.13419008 1.52807999
32.41320038 -5.39760017 1.65076995
32.36299896 -5.38828993 1.74504006
30.51390076 -5.07952976 1.79222000
30.47130013 -5.07151985 1.88083994
30.22419930 -5.02951002 1.96270001
30.10610008 -5.00896978 2.04761004
29.55209923 -4.91591978 2.11533999
29.68790054 -4.93763018 2.20795989
29.93869972 -4.97845984 2.30643010
29.85219955 -4.96319008 2.39066005
29.92020035 -4.97359991 2.48205996
29.88739967 -4.96725988 2.56858993
28.68810081 -4.76708984 2.59013009
29.28919983 -4.86610985 2.70998001
29.18289948 -4.84757996 2.78991008
27.95899963 -4.64344978 2.79721999
27.88590050 -4.63047981 2.87489009
28.91489983 -4.80047989 3.02970004
28.91790009 -4.80012989 3.11541009
29.02400017 -4.81688023 3.20902991
29.86549950 -4.95563984 3.36160994
26.55089951 -4.40487003 3.17747998
26.14649963 -4.33699989 3.22164989
25.97509956 -4.30778980 3.28398991
26.14240074 -4.33477020 3.37623000
29.90259933 -4.95646000 3.89636993
26.23229980 -4.34732008 3.61790991
25.51320076 -4.22738981 3.62173009
26.27400017 -4.35266018 3.77820992
24.09819984 -3.99149990 3.61917996
22.91399956 -3.79468012 3.55824995
22.99979973 -3.80819988 3.63632011
23.04319954 -3.81469011 3.70993996
23.10700035 -3.82454991 3.78632998
22.99620056 -3.80552006 3.84151006
23.41390038 -3.87393999 3.96316004
23.18320084 -3.83508992 4.00311995
23.06119919 -3.81419992 4.05619001
23.69680023 -3.91862011 4.21156979
25.98460007 -4.29616022 4.60034990
24.42370033 -4.03735018 4.45666981
24.36790085 -4.02739000 4.52182007
30.88209915 -5.21670008 1.52102995
32.43239975 -5.47760010 1.64277005
32.42760086 -5.47582006 1.73819005
30.48959923 -5.14764023 1.78376997
30.41340065 -5.13387012 1.87140000
30.31929970 -5.11707020 1.95801997
30.23380089 -5.10172987 2.04440999
29.54100037 -4.98395014 2.10748005
29.86000061 -5.03688002 2.20748997
29.91370010 -5.04504013 2.29785991
30.02630043 -5.06310987 2.39130998
30.01840019 -5.06088018 2.47950006
29.99440002 -5.05594015 2.56681991
28.71489906 -4.83938980 2.58456993
29.25569916 -4.92966986 2.70086002
29.14159966 -4.90956020 2.78027010
29.01549911 -4.88744020 2.85826993
28.85960007 -4.86032009 2.93354988
28.87479973 -4.86198997 3.01992989
28.91419983 -4.86777020 3.10821009
28.21129990 -4.74688005 3.30733991
28.19490051 -4.74325991 3.38951993
28.21459961 -4.74571991 3.47481990
25.87179947 -4.35089016 3.34552002
27.86039925 -4.68447018 3.60894990
29.77510071 -5.00549984 3.87709999
25.98839951 -4.36814022 3.58751011
23.69199944 -3.98145008 3.42863011
25.43490028 -4.27357006 3.68342996
24.11230087 -4.05061007 3.61522007
23.95190048 -4.02294016 3.66904998
23.03580093 -3.86839008 3.63526011
23.02440071 -3.86577010 3.70253992
23.13220024 -3.88316989 3.78418994
23.49329948 -3.94306993 3.89788008
23.46829987 -3.93816996 3.96485996
23.23579979 -3.89843988 4.00481987
23.03650093 -3.86431003 4.04784012
22.98380089 -3.85475993 4.10961008
25.98539925 -4.35737991 4.59478998
25.93120003 -4.34748983 4.66499996
24.37999916 -4.08668995 4.51830006
25.50499916 -4.27447987 4.75767994
30.84059906 -5.27560997 1.52301002
32.43960190 -5.54813004 1.64576995
32.40129852 -5.54058981 1.74047005
30.41670036 -5.20027018 1.78463995
31.50909996 -5.38607979 1.90574002
30.31940079 -5.18176985 1.96081996
30.22010040 -5.16386986 2.04675007
30.13240051 -5.14796019 2.13253999
30.05629921 -5.13402987 2.21831012
30.02449989 -5.12673998 2.39415002
29.95359993 -5.11370993 2.47923994
29.98769951 -5.11861992 2.56944990
28.70470047 -4.89872980 2.58688998
29.13909912 -4.97196007 2.69702005
29.06340027 -4.95814991 2.77847004
28.98749924 -4.94431019 2.85947990
28.76679993 -4.90576982 2.93033004
28.89299965 -4.92641020 3.02427006
29.07410049 -4.95637989 3.12299991
26.56929970 -4.52774000 3.09694004
28.14039993 -4.79459000 3.30462003
28.23889923 -4.81050014 3.39639997
28.06209946 -4.77953005 3.46456003
27.93729973 -4.75739002 3.53643990
27.88290024 -4.74727011 3.61424994
23.37890053 -3.97972012 3.26028991
25.97620010 -4.42103004 3.58931994
23.65810013 -4.02577019 3.42792010
25.46990013 -4.33329010 3.69016004
24.24390030 -4.12393999 3.63243008
25.80319977 -4.38838005 3.87906003
25.79100037 -4.38550997 3.95454001
23.09939957 -3.92710996 3.71421003
23.35790062 -3.97033000 3.81434011
23.52400017 -3.99782991 3.90461993
23.34749985 -3.96709991 3.95249009
23.19919968 -3.94117999 4.00300980
23.00099945 -3.90678000 4.04606009
22.97559929 -3.90176010 4.11147022
25.92639923 -4.40204000 4.58997011
25.87610054 -4.39269018 4.66058016
24.44939995 -4.14974022 4.53157997
25.52610016 -4.33167982 4.76421022
29.04579926 -5.00365019 1.50691998
32.45539856 -5.59003019 1.66220999
32.38660049 -5.57717991 1.75625002
31.63369942 -5.44656992 1.83186996
31.57519913 -5.43553019 1.92340004
31.60810089 -5.44020987 2.01754999
30.25580025 -5.20655012 2.06312990
30.15239906 -5.18781996 2.14841008
30.13929939 -5.18464994 2.23679996
29.96750069 -5.15233994 2.49503994
29.95240021 -5.14882994 2.58272004
30.04529953 -5.16387987 2.67636991
29.09989929 -5.00051022 2.70947003
29.06259918 -4.99319983 2.79314995
28.98069954 -4.97825003 2.87375998
28.21229935 -4.84538984 2.90738010
28.31299973 -4.86182022 2.99796009
29.11829948 -4.99919987 3.14108992
26.43020058 -4.53526020 3.17775989
28.19079971 -4.83650017 3.40678000
28.11520004 -4.82265997 3.48369002
27.94809914 -4.79313993 3.55182004
27.93980026 -4.79086018 3.63401008
23.34860039 -4.00289011 3.26941991
25.91480064 -4.44203997 3.59659004
23.38640022 -4.00792980 3.41208005
25.46349907 -4.36312008 3.70269990
24.22599983 -4.15032005 3.64309001
25.79369926 -4.41808987 3.89143991
25.80699921 -4.41956997 3.96985006
25.67609978 -4.39635992 4.03132010
23.35280037 -3.99784994 3.82595992
23.42690086 -4.00980997 3.90490007
23.33550072 -3.99343991 3.96323991
23.20770073 -3.97086000 4.01634979
22.98900032 -3.93271995 4.05662012
23.00959969 -3.93551993 4.12825012
25.92040062 -4.43256998 4.60288000
25.87689972 -4.42432022 4.67443991
24.30820084 -4.15535021 4.52405024
25.47330093 -4.35374022 4.76997995
29.07480049 -5.03198004 1.41790998
29.05389977 -5.02746010 1.50320995
32.40399933 -5.60615015 1.65688002
32.37260056 -5.59970999 1.75165999
31.65239906 -5.47415018 1.82819998
31.60379982 -5.46475983 1.92008996
31.54999924 -5.45447016 2.01154995
30.25009918 -5.22880983 2.05897999
30.13979912 -5.20879984 2.14400005
30.10309982 -5.20150995 2.23141003
29.63220024 -5.11829996 2.38698006
29.91270065 -5.16582012 2.48844004
29.93989944 -5.16959000 2.57821012
29.06590080 -5.01688004 2.70374990
29.03160095 -5.01003981 2.78752995
28.91629982 -4.98925018 2.86590004
28.28560066 -4.87954998 2.90876007
28.26350021 -4.87484980 2.99087000
27.67889977 -4.77314997 3.03151011
27.82150078 -4.79687023 3.12437010
26.43110085 -4.55549002 3.17452002
28.18070030 -4.85616016 3.40239000
28.07169914 -4.83650017 3.47634006
27.92620087 -4.81056976 3.54635000
27.91110039 -4.80708981 3.62784004
27.60149956 -4.75289011 3.68059993
23.38459969 -4.02603006 3.33949995
25.93390083 -4.46411991 3.67242002
23.72780037 -4.08363008 3.51504993
25.59700012 -4.40452003 3.78995991
25.77510071 -4.43436003 3.88619995
25.73159981 -4.42607021 3.95800996
25.62719917 -4.40731001 4.02240992
23.33849907 -4.01296997 3.82138991
23.39990044 -4.02278996 3.89870000
23.36330032 -4.01575994 3.96394992
23.27459908 -3.99978995 4.02226019
23.01289940 -3.95409012 4.05703020
22.99830055 -3.95085001 4.12395000
24.25869942 -4.16660023 4.36837006
25.74049950 -4.42027998 4.65191984
25.75340080 -4.42168999 4.73109007
25.46680069 -4.37166977 4.76597023
29.12269974 -5.07990980 1.39128006
29.06450081 -5.06879997 1.47614002
29.11140060 -5.07603979 1.56270003
29.18169975 -5.08734989 1.65006995
31.62919998 -5.51299000 1.79797995
31.58950043 -5.50504017 1.89012003
31.61660004 -5.50871992 1.98413002
31.51040077 -5.48920012 2.07375002
31.54669952 -5.49450016 2.16806006
30.09729958 -5.24106979 2.20306993
29.53389931 -5.14199018 2.26764011
29.64539909 -5.16043997 2.35994005
29.83340073 -5.19219017 2.45667005
29.89030075 -5.20110989 2.54772997
29.90360069 -5.20244980 2.63674998
28.10619926 -4.88789988 2.70424008
28.91150093 -5.02700996 2.83868003
28.30760002 -4.92108011 2.88389993
28.13610077 -4.89034986 2.95569992
27.88489914 -4.84575987 3.02073002
27.76609993 -4.82422018 3.09431005
26.53720093 -4.60982990 3.07997990
26.32699966 -4.57245016 3.14145994
26.18930054 -4.54767990 3.20787001
25.66860008 -4.45642996 3.23997998
27.92239952 -4.84677982 3.52005005
27.52519989 -4.77603006 3.64760995
27.45199966 -4.76242018 3.72214007
26.06100082 -4.52024984 3.66135001
23.66600037 -4.10408020 3.48651004
25.59390068 -4.43756008 3.76585007
24.00230026 -4.16080999 3.66486001
25.73850060 -4.46091986 3.93490005
25.66550064 -4.44743013 4.00309992
24.23229980 -4.19827986 3.90724993
25.47599983 -4.41289997 4.13297987
23.30909920 -4.03678989 3.93540001
23.27129936 -4.02948999 4.00021982
23.06929970 -3.99374008 4.04310989
23.11140060 -4.00025988 4.11787987
24.24480057 -4.19563007 4.34391022
25.66399956 -4.44037008 4.61719990
25.74049950 -4.45275021 4.70528984
25.40719986 -4.39423990 4.73350000
29.17760086 -5.15414000 1.31352997
29.16790009 -5.15149021 1.39940000
29.40509987 -5.19244003 1.48933995
29.41060066 -5.19248009 1.57614994
29.29870033 -5.17179012 1.66033995
29.07530022 -5.13143015 1.74102998
31.58639908 -5.57358980 1.89836001
31.55929947 -5.56779003 1.99068999
31.49839973 -5.55604982 2.08172011
31.47369957 -5.55068016 2.17374992
31.44969940 -5.54545021 2.26569009
31.31329918 -5.52039003 2.35263991
29.63899994 -5.22426987 2.36766005
29.49130058 -5.19635010 2.53505993
29.75149918 -5.24124002 2.63655996
28.85420036 -5.08131981 2.75768995
28.23679924 -4.97170019 2.80350995
28.15800095 -4.95692015 2.88176990
28.01309967 -4.93052006 2.95497990
27.81209946 -4.89423990 3.02326012
27.72680092 -4.87833023 3.09915996
26.50909996 -4.66323996 3.08528996
26.32939911 -4.63079023 3.14915991
26.25950050 -4.61765003 3.22130990
25.63500023 -4.50699997 3.24440002
25.53339958 -4.48832989 3.31127000
27.44960022 -4.82339001 3.64830995
27.37730026 -4.80981016 3.72272992
26.13979912 -4.59154987 3.67708993
23.72710037 -4.16699982 3.49994993
25.34670067 -4.45060015 3.74657011
25.36720085 -4.45339012 3.82439995
24.17490005 -4.24329996 3.76335001
23.79719925 -4.17622995 3.79103994
25.50670052 -4.47540998 4.06828022
25.44709969 -4.46412992 4.13711977
23.26049995 -4.07979012 3.93634009
23.21990013 -4.07190990 4.00064993
23.21719933 -4.07068014 4.06979990
25.88349915 -4.53732014 4.50095987
25.57489967 -4.48238993 4.53578997
24.26049995 -4.25123978 4.42637014
24.02149963 -4.20858002 4.46466017
25.47369957 -4.46218014 4.75129986
29.27750015 -5.24663019 1.25182998
29.16270065 -5.22510004 1.33684003
29.18239975 -5.22770023 1.42313004
29.29840088 -5.24751997 1.51121998
29.41110039 -5.26675987 1.59994996
29.28540039 -5.24330997 1.68376005
28.94899940 -5.18212986 1.76128995
28.98719978 -5.18802977 1.84783006
31.43169975 -5.62451982 2.01226997
31.34029961 -5.60715008 2.10184002
31.44339943 -5.62457991 2.19831991
31.44199944 -5.62331009 2.29112005
29.28750038 -5.23704004 2.28894997
29.26810074 -5.23262978 2.37456012
29.28860092 -5.23438978 2.54864001
28.93560028 -5.16942978 2.70105004
28.69589996 -5.12567997 2.77182007
28.21829987 -5.03946018 2.82575989
28.07950020 -5.01377010 2.89988995
27.88159943 -4.97753000 2.96902990
27.77099991 -4.95687008 3.04346991
26.28599930 -4.69011021 3.08974004
26.44190025 -4.71707010 3.18059993
26.24640083 -4.68134022 3.24231005
25.56130028 -4.55832005 3.25950003
25.46369934 -4.54008007 3.32646990
27.42880058 -4.88865995 3.66957998
27.38689995 -4.88030005 3.74697995
23.57010078 -4.19939995 3.43331003
25.32369995 -4.51099014 3.69028997
25.35810089 -4.51629019 3.76951003
25.35409927 -4.51475000 3.84467006
24.11050034 -4.29252005 3.77669001
23.66740036 -4.21287012 3.79615998
23.50399971 -4.18301010 3.84699988
23.48220062 -4.17835999 3.91453004
23.15349960 -4.11911011 3.94285989
22.87070084 -4.06804991 3.97525001
23.20479965 -4.12671995 4.08835983
25.80719948 -4.58866978 4.51313019
24.28240013 -4.31675005 4.37784004
24.07579994 -4.27923012 4.42130995
24.04949951 -4.27375984 4.48982000
25.44039917 -4.52010012 4.76877022
25.35470009 -4.50403023 4.83234978
29.60589981 -5.37516022 1.07641995
29.46109962 -5.34789991 1.16296005
29.34359932 -5.32560015 1.24887002
29.25239944 -5.30809021 1.33439004
29.17280006 -5.29268980 1.41954005
29.16180038 -5.28973007 1.50541997
29.39949989 -5.33187008 1.59630001
28.67090034 -5.19786978 1.75071001
28.64920044 -5.19297981 1.83469999
31.41530037 -5.69333982 2.00825000
31.36529922 -5.68323994 2.09927011
31.44479942 -5.69659996 2.19494009
31.46800041 -5.69976997 2.28880000
29.19339943 -5.28681993 2.28168988
30.63179970 -5.54628992 2.43551993
29.68910027 -5.37463999 2.47901011
28.97050095 -5.24167013 2.70018005
28.68470001 -5.18903017 2.76826000
28.21520042 -5.10315990 2.82277012
28.02639961 -5.06808996 2.89353991
27.82859993 -5.03141022 2.96258998
27.82600021 -5.03001022 3.04486990
26.29150009 -4.75089979 3.08772993
26.56809998 -4.79999018 3.18858004
28.15730095 -5.08618021 3.40342999
25.53389931 -4.61146021 3.25477004
25.51589966 -4.60653019 3.40483999
23.44799995 -4.23241997 3.27912998
23.47579956 -4.23666000 3.35168004
23.46910095 -4.23467016 3.42086005
25.24349976 -4.55399990 3.67964005
25.38859940 -4.57931995 3.77076006
26.02919960 -4.69399977 3.91850996
25.72649956 -4.63856983 3.96127009
23.65850067 -4.26491022 3.79322004
23.41690063 -4.22059011 3.83458996
23.47330093 -4.22996998 3.91161990
23.14469910 -4.16999006 3.93998003
22.82889938 -4.11231995 3.96809006
22.93560028 -4.13077021 4.05072021
24.43580055 -4.40014982 4.32416010
24.20499992 -4.35777998 4.36531019
24.05120087 -4.32927990 4.41610003
24.02779961 -4.32426977 4.48499012
25.37639999 -4.56611013 4.75751019
29.86370087 -5.47603989 0.70804000
29.85280037 -5.47305012 0.79624897
29.83670044 -5.46912003 0.88440901
29.79870033 -5.46117020 0.97249001
29.63850021 -5.43083000 1.06009996
29.52919960 -5.40983009 1.14700997
29.45999908 -5.39617014 1.23360002
29.74460030 -5.44731998 1.32363999
29.16440010 -5.34010983 1.40337002
29.18790054 -5.34344006 1.48984003
29.21990013 -5.34835005 1.57661998
29.76910019 -5.44786978 1.67535996
28.55170059 -5.22319984 1.81625998
31.38990021 -5.74137020 1.99030995
31.34480095 -5.73209000 2.08148003
31.44300079 -5.74901009 2.17777991
31.46719933 -5.75239992 2.27167010
29.24939919 -5.34599018 2.26828003
29.41279984 -5.37489986 2.36232996
30.60869980 -5.59241009 2.50836992
28.94910049 -5.28632021 2.68332005
28.91480064 -5.27910995 2.76692009
28.32670021 -5.17078018 2.81476998
28.08690071 -5.12609005 2.88256001
27.80769920 -5.07422018 2.94619989
27.84740067 -5.08052015 3.03152990
26.70159912 -4.87061024 3.02691007
26.44379997 -4.82270002 3.08573008
26.49869919 -4.83183002 3.16869998
27.52879906 -5.01874018 3.33497000
28.08670044 -5.11952019 3.46585989
25.27459908 -4.60526991 3.36859989
23.30030060 -4.24477005 3.25236011
23.29879951 -4.24372005 3.32154012
23.33819962 -4.25011015 3.39495993
23.62590027 -4.30172014 3.49496007
25.33659935 -4.61233997 3.75167990
26.02309990 -4.73644018 3.90407991
25.76849937 -4.68923998 3.95251012
23.65299988 -4.30349016 3.78010988
23.37840080 -4.25273991 3.81760001
23.46610069 -4.26791000 3.89837003
23.35140038 -4.24627018 3.95404005
22.87549973 -4.15896988 3.96215010
26.29520035 -4.77980995 4.48514986
24.26269913 -4.40954018 4.28781986
24.21339989 -4.39975977 4.35379982
24.08489990 -4.37560987 4.40829992
24.01000023 -4.36117983 4.46984005
24.04879951 -4.36742020 4.54782009
25.31360054 -4.59626007 4.81119013
29.85709953 -5.51766014 0.71037197
29.84119987 -5.51373005 0.79861599
29.81329918 -5.50756979 0.88680798
29.75959969 -5.49665022 0.97485298
29.62599945 -5.47097015 1.06241000
29.50979996 -5.44853020 1.14927006
29.64909935 -5.47323990 1.23749006
29.85300064 -5.50988007 1.32723999
29.84819984 -5.50797987 1.41530001
29.21680069 -5.39048004 1.49274004
29.28619957 -5.40230989 1.58037996
29.77720070 -5.49186993 1.67805004
29.67110062 -5.47130013 1.76324999
28.49720001 -5.25388002 1.81713998
28.51059914 -5.25540018 1.90172994
31.44779968 -5.79576015 2.08778000
31.48119926 -5.80082989 2.18197989
31.46310043 -5.79644012 2.27430010
29.27820015 -5.39294004 2.27216005
29.40530014 -5.41535997 2.36464000
29.86409950 -5.49884987 2.47430992
29.79220009 -5.48459005 2.55889010
29.03650093 -5.34450006 2.60518003
28.93379974 -5.32461977 2.68512988
28.34690094 -5.21565008 2.73479009
28.24480057 -5.19591999 2.81218004
27.81629944 -5.11521006 2.94948006
27.92560005 -5.13435984 3.03995991
26.64570045 -4.89814997 3.02525997
26.41550064 -4.85492992 3.08609009
27.40069962 -5.03506994 3.24544001
27.36590004 -5.02775002 3.32385993
28.07950020 -5.15789986 3.46805000
23.46899986 -4.30943012 3.20131993
23.29039955 -4.27584982 3.25379992
23.26639938 -4.27064991 3.32071996
23.34589958 -4.28445005 3.39820004
25.25160027 -4.63331985 3.66980004
25.29389954 -4.64022017 3.74972010
26.20899963 -4.80719995 3.92769003
24.08659935 -4.41709995 3.76187992
23.66349983 -4.33870983 3.78392005
23.30010033 -4.27127981 3.81067991
23.39749908 -4.28834009 3.89245009
23.14920044 -4.24204016 3.93094993
22.93110085 -4.20129013 3.97193003
26.26499939 -4.81120014 4.48408985
24.16379929 -4.42548990 4.27712011
24.16130066 -4.42420006 4.34931993
24.05920029 -4.40467978 4.40742016
23.98920059 -4.39102983 4.46960020
25.28560066 -4.62744999 4.73374987
29.84210014 -5.56582022 0.71779001
29.81640053 -5.55999994 0.80607599
29.81110001 -5.55799007 0.89413399
29.77409935 -5.55006981 0.98217601
29.69659996 -5.53458977 1.06990004
29.60300064 -5.51613998 1.15708005
29.78260040 -5.54857016 1.24597001
29.84289932 -5.55877018 1.33458996
29.83699989 -5.55667019 1.42262995
29.24419975 -5.44524002 1.50057006
29.34499931 -5.46300983 1.58896005
29.73950005 -5.53541994 1.68473995
29.66090012 -5.51978016 1.77054000
29.50550079 -5.48984003 1.85365999
28.47920036 -5.29790020 1.90804005
31.49010086 -5.85693979 2.09734988
31.39170074 -5.83756018 2.18671989
29.25370026 -5.43898010 2.19219995
29.27499962 -5.44190979 2.27962995
29.39609909 -5.46340990 2.37188005
29.75460052 -5.52901983 2.47668004
29.78569984 -5.53378010 2.56638002
29.01169968 -5.38896990 2.61145997
28.92959976 -5.37271976 2.69253993
28.31340027 -5.25730991 2.74025989
28.29859924 -5.25360012 2.82319999
25.85070038 -4.79734993 2.81832004
27.18700027 -5.04441977 2.99321008
26.58429909 -4.93166018 3.02777004
26.26289940 -4.87114000 3.08114004
26.38050079 -4.89202976 3.16881990
26.42919922 -4.90014982 3.25134993
26.29549980 -4.87445021 3.31807995
23.36470032 -4.33035994 3.12847996
23.38699913 -4.33369017 3.20007992
23.26530075 -4.31031990 3.25781989
23.26869965 -4.31014013 3.32743001
23.33250046 -4.32114983 3.40334010
25.31679916 -4.68775988 3.68382001
25.27589989 -4.67930984 3.75486994
23.98579979 -4.43964005 3.68546009
23.95179939 -4.43250990 3.75317001
23.50830078 -4.34962988 3.77230000
23.25539970 -4.30202007 3.81190991
23.27370071 -4.30459976 3.88378000
23.09869957 -4.27142000 3.93118000
24.47439957 -4.52496004 4.17962980
26.19109917 -4.84143019 4.48185015
26.06520081 -4.81724977 4.54331017
24.22060013 -4.47550011 4.36463022
24.09900093 -4.45218992 4.42012978
24.01040077 -4.43497992 4.47975016
29.85869980 -5.61326981 0.72927397
29.84480095 -5.60962009 0.81755102
29.83069992 -5.60590982 0.90574098
29.81819916 -5.60253000 0.99384499
29.80360031 -5.59873009 1.08186996
29.75329971 -5.58824015 1.16960001
29.82069969 -5.59986019 1.25805998
29.84059906 -5.60256004 1.34636998
29.84269905 -5.60190010 1.43454003
29.23609924 -5.48702002 1.51204002
29.21800041 -5.48260021 1.59802997
29.75979996 -5.58320999 1.69707000
29.64879990 -5.56134987 1.78207004
29.53359985 -5.53872013 1.86629999
28.55669975 -5.35450983 1.92197001
31.41839981 -5.88999987 2.10748005
29.69549942 -5.56596994 2.13441992
29.18269920 -5.46881008 2.20108008
29.15570068 -5.46273994 2.28620005
29.23360062 -5.47630978 2.37614012
29.81679916 -5.58450985 2.49189997
28.71030045 -5.37625980 2.52138996
28.90229988 -5.41120005 2.61716008
28.87220001 -5.40456009 2.70098996
28.42589951 -5.32002020 2.75885010
28.35720062 -5.30615997 2.83862996
25.82649994 -4.83171988 2.75068998
27.23200035 -5.09276009 3.00778008
26.59810066 -4.97326994 3.03985000
26.25810051 -4.90878010 3.09167004
26.26000023 -4.90821981 3.16983008
26.37529945 -4.92884016 3.25776005
26.36310005 -4.92562008 3.33507991
23.35770035 -4.36328983 3.13764000
23.41530037 -4.37320995 3.21258998
23.31110001 -4.35294008 3.27210999
23.30470085 -4.35092020 3.34088993
23.39290047 -4.36655998 3.41948009
23.57469940 -4.39967012 3.50864005
24.29770088 -4.53373003 3.65829992
24.03420067 -4.48370981 3.70113993
24.03429985 -4.48288012 3.77295995
23.58699989 -4.39862013 3.79170990
23.24620056 -4.33424997 3.82079005
23.24410057 -4.33302021 3.89010000
23.06609917 -4.29903984 3.93700004
24.46089935 -4.55811977 4.18844986
26.00259972 -4.84447002 4.46799994
24.20969963 -4.50959015 4.30092001
24.22470093 -4.51150990 4.37575006
24.23940086 -4.51339006 4.45069981
29.84099960 -5.67334986 0.82224101
29.86709976 -5.67720985 0.91033101
29.86739922 -5.67617989 0.99857402
29.88220024 -5.67788982 1.08685994
29.87619972 -5.67564011 1.17510998
29.89439964 -5.67800999 1.26354003
29.95560074 -5.68852997 1.35258996
29.88400078 -5.67382002 1.44005001
29.79039955 -5.65497017 1.52670002
29.19569969 -5.54099989 1.60244000
29.90810013 -5.67510986 1.70556998
29.69989967 -5.63451004 1.78843999
28.34149933 -5.37576008 1.83606994
28.54540062 -5.41338015 1.92649996
31.40609932 -5.95471001 2.11245990
29.68379974 -5.62707996 2.13912010
29.14459991 -5.52378988 2.20460010
29.07159996 -5.50888014 2.28759003
29.08559990 -5.51046991 2.37430000
29.79910088 -5.64453983 2.49632001
28.75289917 -5.44531012 2.52881002
28.85359955 -5.46330976 2.61964011
28.77449989 -5.44726992 2.70044994
28.40379906 -5.37500000 2.84688997
26.55130005 -5.02052021 3.04127002
26.20170021 -4.95345020 3.09213996
26.21540070 -4.95506001 3.17112994
25.53269958 -4.82507992 3.19034004
26.27919960 -4.96518993 3.33272004
23.45610046 -4.43093014 3.15124011
23.47649956 -4.43389988 3.22298002
23.37430000 -4.41374016 3.28288007
23.35020065 -4.40832996 3.35009003
23.41099930 -4.41893005 3.42601991
23.59280014 -4.45236015 3.51529002
24.20210075 -4.56645012 3.65267992
24.02079964 -4.53134012 3.70448995
24.02479935 -4.53120995 3.77675009
23.33760071 -4.40073013 3.76688004
23.14529991 -4.36360979 3.81328011
23.08760071 -4.35187006 3.87537003
22.95560074 -4.32612991 3.92765999
22.83130074 -4.30185986 3.98022008
25.97870064 -4.89388990 4.47027016
24.20789909 -4.55942011 4.30580997
24.10700035 -4.53950977 4.36444998
24.12369919 -4.54174995 4.43935013
29.90410042 -5.76084995 1.07617998
29.89800072 -5.75856018 1.16454005
29.90259933 -5.75830984 1.25294995
30.15130043 -5.80507994 1.34420002
29.16309929 -5.61151981 1.59152997
29.89389992 -5.75100994 1.69477999
29.68090057 -5.70892000 1.77760005
29.59239960 -5.69078016 1.86280000
29.19939995 -5.61409998 1.93768001
28.78059959 -5.53250980 2.00935006
28.74740028 -5.52504015 2.09325004
29.13100052 -5.59766006 2.19408989
28.68219948 -5.51034021 2.26055002
28.62179947 -5.49766016 2.34263992
28.45619965 -5.46477985 2.41913009
28.73959923 -5.51810980 2.51842999
28.84020042 -5.53634977 2.60923004
25.85720062 -4.96272993 2.51900005
25.80680084 -4.95208979 2.59254003
26.47330093 -5.07598019 2.94798994
25.60530090 -4.90761995 3.03607988
25.67989922 -4.92092991 3.11835003
26.49110031 -5.07537985 3.26424003
23.20789909 -4.44548988 3.05190992
23.21479988 -4.44593000 3.12160993
23.42300034 -4.48491001 3.21042991
23.42449951 -4.48432016 3.28035998
23.42589951 -4.48368979 3.35032010
23.43199921 -4.48396015 3.42080998
23.57360077 -4.51016998 3.50584006
24.19149971 -4.62746000 3.64394999
24.01020050 -4.59187984 3.69582009
23.53120041 -4.49937010 3.71222997
23.20350075 -4.43583012 3.74376011
23.03680038 -4.40307999 3.79293990
22.96649933 -4.38877010 3.85318995
22.91259956 -4.37759018 3.91514993
24.60239983 -4.69950008 4.20460987
24.55340004 -4.68919992 4.27192020
24.11870003 -4.60525990 4.28630018
24.02079964 -4.58564997 4.34513998
24.01619911 -4.58384991 4.41676998
24.08040047 -4.59518003 4.49843979
29.88780022 -5.84442997 1.08045006
29.86709976 -5.83924007 1.16873002
29.87940025 -5.84051991 1.25716996
29.90229988 -5.84386015 1.34581006
29.93969917 -5.85002995 1.43480003
29.11580086 -5.68684006 1.59505999
29.22120094 -5.70629978 1.68366003
29.66480064 -5.79179001 1.78183997
29.44779968 -5.74831009 1.86325002
29.32180023 -5.72259998 1.94632995
28.76490021 -5.61283016 2.01346993
29.20940018 -5.69844007 2.11563993
29.19750023 -5.69501019 2.20164990
28.55870056 -5.56933022 2.25988007
28.39259911 -5.53478003 2.42077994
28.34449959 -5.52433014 2.50238991
25.96660042 -5.05988979 2.45301008
25.84300041 -5.03482008 2.52270007
25.75149918 -5.01601982 2.59367990
27.62389946 -5.37967014 2.79184008
28.28490067 -5.50730991 2.91879010
28.33040047 -5.51508999 3.00603008
26.58799934 -5.17489004 2.96132994
25.76149940 -5.01207018 3.05334997
25.59530067 -4.97875023 3.11617994
23.18510056 -4.50903988 2.98534012
23.10029984 -4.49166012 3.04679990
23.18149948 -4.50656986 3.12303996
23.35440063 -4.53927994 3.20849991
23.38039970 -4.54343987 3.28064990
23.96590042 -4.65631008 3.40942001
23.41900063 -4.54916000 3.42416000
23.56060028 -4.57574987 3.50920010
25.11020088 -4.87574005 3.74975991
24.92980003 -4.83973980 3.80448008
23.23629951 -4.51009989 3.68295002
23.04929924 -4.47291994 3.73027992
22.94020081 -4.45087004 3.78602004
22.88170052 -4.43862009 3.84747005
22.99930000 -4.46054983 3.93111992
24.51090050 -4.75276995 4.19792986
24.37339973 -4.72516012 4.25314999
24.21920013 -4.69434023 4.30531979
24.03089905 -4.65690994 4.35184002
23.99609947 -4.64924002 4.41921997
29.92469978 -5.94036007 1.37834001
29.94729996 -5.94369984 1.46726000
29.16340065 -5.78701019 1.54131997
29.11000061 -5.77530003 1.62649000
29.25440025 -5.80284023 1.71621001
29.87610054 -5.92502022 1.81991994
29.42970085 -5.83537006 1.89479005
29.67429924 -5.88274002 1.99012005
29.40290070 -5.82782984 2.06815004
29.28140068 -5.80261993 2.15047002
28.53919983 -5.65444994 2.20581007
28.43490028 -5.63270998 2.28567004
28.43230057 -5.63111019 2.36982989
25.97159958 -5.14177990 2.40500998
25.95980072 -5.13846016 2.48136997
25.75779915 -5.09749985 2.54624009
27.44339943 -5.43002987 2.72917008
27.67259979 -5.47430992 2.82581997
28.23310089 -5.58412981 2.94677997
28.13669968 -5.56397009 3.02373004
26.40810013 -5.22113991 2.97760010
25.94960022 -5.12950993 3.02034998
25.76889992 -5.09280014 3.08291006
25.33970070 -5.00699997 3.12353992
25.20960045 -4.98032999 3.18766999
23.25090027 -4.59249020 3.08647990
23.35630035 -4.61243010 3.16558003
23.45669937 -4.63135004 3.24483991
23.73349953 -4.68510008 3.34221005
24.64459991 -4.86398983 3.50594997
24.86490059 -4.90650988 3.60267997
23.54430008 -4.64503002 3.53443003
25.19720078 -4.97014999 3.78821993
23.03549957 -4.54287004 3.61726999
23.21619987 -4.57762003 3.70737004
23.17740059 -4.56906986 3.77224994
22.97960091 -4.52919006 3.81740999
22.94729996 -4.52194023 3.88226008
24.62210083 -4.85101986 4.16718006
24.33869934 -4.79425001 4.20375013
24.22559929 -4.77102995 4.26165009
24.05879974 -4.73725986 4.31152010
24.00379944 -4.72549009 4.37619019
29.92760086 -6.02981997 1.55330002
29.14789963 -5.87160015 1.62518001
29.29129982 -5.89934015 1.71502995
29.83219910 -6.00713015 1.81664002
29.54969978 -5.94910002 1.89644003
29.53750038 -5.94548988 1.98360002
29.48870087 -5.93452978 2.06937003
29.32509995 -5.90045977 2.15036011
28.47660065 -5.72863007 2.20142007
28.34989929 -5.70203018 2.28012991
28.36590004 -5.70415020 2.36500001
28.54319954 -5.73869991 2.45824003
25.90959930 -5.20818996 2.40023994
25.94479942 -5.21426010 2.47915006
25.74099922 -5.17229986 2.54392004
25.74749947 -5.17258978 2.62077999
27.64679909 -5.55309010 2.82280993
26.13730049 -5.24886990 2.80070996
26.09020042 -5.23838997 2.87503004
26.22080040 -5.26359987 2.96243000
26.00410080 -5.21908998 3.02355003
25.75410080 -5.16790009 3.08069992
25.06719971 -5.02908993 3.09969997
23.62420082 -4.73866987 3.04888010
23.47389984 -4.70760012 3.10576010
23.47680092 -4.70726013 3.17600989
23.68350029 -4.74776983 3.26588011
24.03910065 -4.81813002 3.37175989
24.78660011 -4.96697998 3.51975012
24.70339966 -4.94933987 3.58509994
24.74880028 -4.95745993 3.66386008
25.15259933 -5.03736019 3.78271008
22.96489906 -4.59832001 3.60875010
23.15629959 -4.63572979 3.69990993
23.23139954 -4.64985991 3.77833009
23.09889984 -4.62243986 3.83172011
23.15419960 -4.63258982 3.90799999
24.36980057 -4.87482977 4.13432980
24.28700066 -4.85731983 4.19666004
24.22260094 -4.84347010 4.26101017
24.04039955 -4.80609989 4.30879021
23.95919991 -4.78890991 4.36975002
23.97290039 -4.79070997 4.44397020
29.81520081 -6.09919024 1.45007002
29.81800079 -6.09855986 1.53847003
29.07990074 -5.94645023 1.61128998
29.24970055 -5.97999001 1.70155001
29.49150085 -6.02706003 1.88221002
29.44400024 -6.01618004 1.96809006
29.37479973 -6.00086021 2.05292010
28.45649910 -5.81211996 2.10432005
28.41720009 -5.80295992 2.18708992
28.32679939 -5.78337002 2.26734996
28.24990082 -5.76653004 2.34773993
28.55739975 -5.82813978 2.44722009
25.89389992 -5.28353024 2.38878989
29.44939995 -6.00663996 2.75497007
29.63030052 -6.04234982 2.85384989
29.60070038 -6.03512001 2.94001007
26.02589989 -5.30524015 2.78256011
26.12319946 -5.32296991 2.94468999
25.61549950 -5.21850014 2.98305011
25.68910027 -5.23245001 3.06526995
25.05340004 -5.10196018 3.08867002
23.92469978 -4.87115002 3.06561995
23.59970093 -4.80401993 3.10784006
23.69330025 -4.82213020 3.18690991
25.79549980 -5.24892998 3.45851994
25.63549995 -5.21533012 3.51978993
24.98480034 -5.08195019 3.53032994
24.69210052 -5.02140999 3.57441998
24.68580055 -5.01913023 3.64761996
25.19860077 -5.12236977 3.77819991
25.47130013 -5.17677021 3.88464999
25.40080070 -5.16141987 3.95279002
24.93020058 -5.06478024 3.97270012
24.79430008 -5.03617001 4.03085995
24.58340073 -4.99235010 4.07883978
24.32200050 -4.93826008 4.11909008
24.27619934 -4.92797995 4.18622017
24.24589920 -4.92082977 4.25518990
24.07250023 -4.88467979 4.30434990
23.93499947 -4.85580015 4.35756016
23.88290024 -4.84424019 4.42225981
29.84189987 -6.19097996 1.47344005
29.02610016 -6.02057981 1.54651999
29.08149910 -6.03088999 1.63380003
29.07979965 -6.02936983 1.72000003
29.30419922 -6.07237005 1.98634005
28.39529991 -5.88290024 2.03993011
28.41990089 -5.88684988 2.12516999
28.37080002 -5.87553978 2.20743990
28.30970001 -5.86176014 2.28888011
28.23279953 -5.84469986 2.36921000
26.05590057 -5.39300013 2.34077001
25.86540031 -5.35253000 2.40776992
29.39410019 -6.08038998 2.77509999
29.44289970 -6.08931017 2.86562991
26.00480080 -5.37720013 2.72462010
25.93650055 -5.36203003 2.79725003
25.71719933 -5.31463003 2.93514991
26.95969963 -5.57030010 3.10921001
27.04070091 -5.58593988 3.19616008
25.03759956 -5.17116022 3.10770988
24.01790047 -4.95957994 3.09327006
23.58469963 -4.86918020 3.12578011
24.98900032 -5.15809011 3.32733011
25.67569923 -5.29879999 3.46815991
25.61910057 -5.28607988 3.53927994
24.80109978 -5.11631012 3.53216004
24.73259926 -5.10118008 3.59913993
24.66979980 -5.08723021 3.66637993
25.21139908 -5.19788980 3.80061007
25.28529930 -5.21210003 3.88462996
25.31030083 -5.21621990 3.96340990
25.06749916 -5.16517019 4.01014996
24.60009956 -5.06786013 4.02774000
24.41559982 -5.02886009 4.07835007
24.20969963 -4.98546982 4.12512016
24.18140030 -4.97867012 4.19424009
24.04229927 -4.94904995 4.24821997
23.93510056 -4.92601013 4.30584002
23.84140015 -4.90573978 4.36475992
23.81830025 -4.90002012 4.43340015
28.98320007 -6.08749008 1.56445003
28.97100067 -6.08374977 1.65015996
29.02890015 -6.09474993 1.73758996
29.08530045 -6.10424995 1.91165996
29.22760010 -6.13293982 2.00289011
30.00239944 -6.29431009 2.11861992
28.95980072 -6.07440996 2.16565990
28.29420090 -5.93250990 2.30689001
28.21719933 -5.91524982 2.38717008
26.14900017 -5.48062992 2.36295009
25.84320068 -5.41550016 2.42378998
25.83539963 -5.41280985 2.50016999
29.27510071 -6.13229990 2.78751993
29.28770065 -6.13375998 2.87544990
27.43370056 -5.74435997 2.83810997
27.47349930 -5.75158024 2.92259002
24.02669907 -5.02902985 2.75234008
25.72509956 -5.38348007 2.95321012
27.09460068 -5.66899014 3.13824010
27.02519989 -5.65337992 3.21335006
24.52969933 -5.13035011 3.08162999
25.83749962 -5.40282011 3.27004004
24.56850052 -5.13648987 3.23162007
24.84490013 -5.19327021 3.33102012
25.26910019 -5.28091002 3.44646001
25.00119972 -5.22388983 3.49521995
24.85199928 -5.19171000 3.55465007
24.97820091 -5.21706009 3.64244008
25.48859978 -5.32262993 3.77294993
25.31920052 -5.28624010 3.83037996
25.06909943 -5.23298979 3.87753010
25.16399956 -5.25180006 3.96398997
24.98950005 -5.21435022 4.01843023
24.57670021 -5.12722015 4.04230022
24.30879974 -5.07033014 4.08213997
24.22139931 -5.05112982 4.14392996
24.21159935 -5.04808998 4.21555996
23.99679947 -5.00232983 4.25928020
23.93720055 -4.98892021 4.32334995
23.87260056 -4.97447014 4.38640022
23.79229927 -4.95676994 4.44684982
31.81940079 -6.75618982 1.52534997
28.98080063 -6.15229988 1.56439996
28.93040085 -6.14043999 1.64927995
28.96579933 -6.14679003 1.73606002
28.21089935 -5.98544979 1.80058002
29.16600037 -6.18691015 1.91435003
29.26029968 -6.20572996 2.00421000
30.42580032 -6.45169020 2.13468003
29.31389999 -6.21355009 2.26731992
28.28129959 -5.99353981 2.30662990
26.26379967 -5.56491995 2.29126000
26.14879990 -5.53950977 2.36332989
25.79439926 -5.46336985 2.42150998
28.09740067 -5.95002985 2.63234997
26.73259926 -5.65992022 2.63242006
26.82959938 -5.67936993 2.71822000
27.45739937 -5.81116009 2.84029007
27.47760010 -5.81433010 2.92351007
24.09880066 -5.09839010 2.75819993
26.85009956 -5.67935991 3.03953004
26.91850090 -5.69274998 3.12503004
24.85379982 -5.25510979 3.03576994
25.80559921 -5.45529985 3.19096994
24.52149963 -5.18285990 3.15488005
24.60219955 -5.19891977 3.23548007
24.86980057 -5.25443983 3.33418989
25.11260033 -5.30471992 3.43214011
24.97820091 -5.27531004 3.49381995
24.98380089 -5.27548981 3.56918001
25.65299988 -5.41574001 3.71502995
28.67309952 -6.05214977 4.12147999
28.64679909 -6.04543018 4.20454979
28.57850075 -6.02985001 4.28268003
24.91360092 -5.25557995 3.93551993
24.82469940 -5.23581982 3.99959993
24.46850014 -5.15969992 4.03002024
24.27260017 -5.11739016 4.07871008
24.18239975 -5.09738016 4.14003992
24.17060089 -5.09392023 4.21133995
23.99379921 -5.05565977 4.26011992
23.91379929 -5.03783989 4.32138014
23.90929985 -5.03590012 4.39295006
31.97360039 -6.84937000 1.44216001
31.69479942 -6.78836012 1.53241003
28.99900055 -6.20979977 1.57314003
28.86070061 -6.17899990 1.65609002
28.95470047 -6.19795990 1.74421000
28.06809998 -6.00704002 1.80473006
29.16060066 -6.23966980 1.92273998
29.28120041 -6.26428986 2.01356006
30.46479988 -6.51626015 2.14515996
29.52169991 -6.31334019 2.19737005
29.15049934 -6.23158979 2.35560989
28.81559944 -6.15883017 2.42569995
28.70719910 -6.13449001 2.50571990
28.40909958 -6.06963015 2.57458997
28.08839989 -5.99996996 2.64036989
26.75429916 -5.71391010 2.64192009
27.70529938 -5.91587019 2.78293991
27.59000015 -5.89015007 2.85770011
25.47349930 -5.43727016 2.79075003
24.06780052 -5.13624001 2.76340008
26.85799980 -5.73057985 3.04850006
26.90780067 -5.74011993 3.13260007
24.59539986 -5.24583006 3.02226996
24.64240074 -5.25483990 3.09970999
24.54780006 -5.23367977 3.16495991
25.15200043 -5.36042976 3.36876988
25.08790016 -5.34573984 3.43777990
24.90679932 -5.30613995 3.49468994
24.94659996 -5.31358004 3.57339001
28.71680069 -6.11543989 4.04944992
28.66539955 -6.10333014 4.12996006
28.60510063 -6.08932018 4.20921993
28.59320068 -6.08559990 4.29374981
24.85689926 -5.28938007 3.93700004
24.63010025 -5.24010992 3.98415995
24.39640045 -5.18940020 4.02916002
24.21319962 -5.14942980 4.07921982
24.13470078 -5.13174009 4.14190006
24.05990028 -5.11485004 4.20465994
23.97719955 -5.09628010 4.26594019
23.90399933 -5.07974005 4.32810020
23.89660072 -5.07716990 4.39925003
31.94420052 -6.88592005 1.44551003
31.70070076 -6.83211994 1.53627002
31.54000092 -6.79618979 1.62723005
28.86240005 -6.21805000 1.65959001
28.63489914 -6.16787004 1.73943996
28.10910034 -6.05347013 1.80932999
29.09289932 -6.26413012 1.92416000
29.25449944 -6.29772997 2.01624990
29.26930046 -6.29971981 2.10376000
31.43490028 -6.76453018 2.27906990
31.36599922 -6.74841022 2.36954999
29.23320007 -6.28834009 2.36316991
28.98040009 -6.23277998 2.43757010
28.70890045 -6.17322016 2.50950003
28.40699959 -6.10713005 2.57814002
28.23380089 -6.06872988 2.65254998
26.81019974 -5.76164007 2.64886999
27.69750023 -5.95117998 2.78607988
25.40579987 -5.45773983 2.71363997
26.21739960 -5.63101006 2.84667993
24.09709930 -5.17462015 2.76879001
26.81920052 -5.75805998 3.04916000
26.65850067 -5.72245979 3.11642003
26.50060081 -5.68745995 3.18297005
24.61890030 -5.28260994 3.10109997
24.57889938 -5.27301979 3.17111993
24.94529915 -5.34955978 3.35275006
25.03310013 -5.36737013 3.43597007
24.88619995 -5.33482981 3.49615002
24.84810066 -5.32563019 3.56675005
28.70280075 -6.15060997 4.05209017
28.67280006 -6.14300013 4.13492012
28.60190010 -6.12660980 4.21300983
28.55590057 -6.11559010 4.29362011
24.85659981 -5.32231998 3.94062996
24.43659973 -5.23137999 3.96427989
24.36420059 -5.21487999 4.02877998
24.24609947 -5.18858004 4.08704996
24.10740089 -5.15790987 4.14198017
24.04330063 -5.14318991 4.20608997
24.00429916 -5.13384008 4.27330017
23.95439911 -5.12216997 4.33879995
23.89749908 -5.10901022 4.40306997
31.78969955 -6.90058994 1.43999004
31.58139992 -6.85407019 1.53093004
31.47450066 -6.82955980 1.62265003
28.78409958 -6.24458981 1.65483999
28.03800011 -6.08038998 1.80444002
29.14940071 -6.32019997 1.92304003
29.24460030 -6.33963013 2.01299000
29.21739960 -6.33252001 2.09892011
28.14609909 -6.09916019 2.14223003
31.37400055 -6.79732990 2.36685991
29.14419937 -6.31302977 2.35622001
28.75779915 -6.22813988 2.42376995
28.63579941 -6.20052004 2.50294995
28.29980087 -6.12659979 2.56953001
28.16180038 -6.09555006 2.64573002
26.79630089 -5.79887009 2.64556003
26.23959923 -5.67732000 2.68947005
26.17930031 -5.66318989 2.76360989
24.05260086 -5.20213985 2.69166994
25.75790024 -5.56988001 2.88877010
26.71369934 -5.77544022 3.03874993
26.58130074 -5.74571991 3.10798001
24.49150085 -5.29297018 3.01496005
24.56769943 -5.30841017 3.09464002
24.64559937 -5.32422018 3.17495990
24.86050034 -5.36960983 3.26832008
24.87560081 -5.37182999 3.34412003
24.89719963 -5.37546015 3.42069006
24.75819969 -5.34439993 3.48128009
24.75119972 -5.34186983 3.55474997
28.68460083 -6.18955994 4.04789019
28.63419914 -6.17749977 4.12846994
28.56040001 -6.16036987 4.20614004
28.54649925 -6.15617990 4.29035997
24.31879997 -5.24243021 3.94813991
24.27169991 -5.23125982 4.01546001
24.19239998 -5.21315002 4.07844019
24.12369919 -5.19731998 4.14236021
24.02569962 -5.17519999 4.20202017
31.90670013 -6.97945976 1.35228002
31.73189926 -6.93990993 1.44465005
31.53149986 -6.89477015 1.53555000
31.46470070 -6.87884998 1.62794006
30.82239914 -6.73713017 1.70670998
28.01860046 -6.12194014 1.80885005
30.63430023 -6.69219017 1.97563004
29.23450089 -6.38516998 2.01787996
29.14480019 -6.36436987 2.10143995
28.19099998 -6.15490007 2.14916992
28.22789955 -6.16176987 2.23465991
28.17959976 -6.15006018 2.31640005
28.74780083 -6.27287006 2.42858005
28.54969978 -6.22844982 2.50372005
28.27050018 -6.16633987 2.57317996
28.15690041 -6.14037991 2.65072989
28.34059906 -6.17924976 2.74598002
26.28989983 -5.73105001 2.69771004
25.77149963 -5.61587000 2.81784010
25.71190071 -5.60179996 2.89034009
26.70429993 -5.81690979 3.04322004
25.87159920 -5.63442993 3.05660009
24.47710037 -5.32968998 3.01856995
24.48410034 -5.33020020 3.09231997
24.61260033 -5.35714006 3.17691994
24.76810074 -5.38993979 3.26480007
24.81529999 -5.39915991 3.34338999
24.85729980 -5.40726995 3.42180991
24.72710037 -5.37789011 3.48317003
24.73670006 -5.37893009 3.55829000
28.64430046 -6.22742987 4.04946995
28.58230019 -6.21274996 4.12867022
28.53179932 -6.20056009 4.20883989
24.83009911 -5.39506006 3.86614990
24.29170036 -5.27604008 3.94995999
24.24169922 -5.26415014 4.01684999
24.15089989 -5.24339008 4.07826996
24.05789948 -5.22218990 4.13890982
24.04330063 -5.21799994 4.20953989
31.91519928 -7.03842020 1.35230994
31.76589966 -7.00414991 1.44509995
31.57340050 -6.96036005 1.53627002
31.40019989 -6.92083979 1.62668002
30.73859978 -6.77370977 1.70484996
30.64690018 -6.75221014 1.79389000
30.60670090 -6.74205017 1.88387001
30.62290001 -6.74431992 1.97543001
29.07130051 -6.40136003 2.01237988
28.29560089 -6.22936010 2.06948996
28.19899940 -6.20689011 2.14974999
28.16370010 -6.19791985 2.23212004
28.09690094 -6.18203020 2.31283998
28.13629913 -6.18947983 2.39845991
28.47380066 -6.26251984 2.50008988
28.27849960 -6.21836996 2.57402992
28.18840027 -6.19735003 2.65300989
28.33390045 -6.22813988 2.74604011
26.39039993 -5.79979992 2.70466995
25.78050041 -5.66356993 2.81898999
25.68770027 -5.64209986 2.88910007
25.64060020 -5.63066006 2.96218991
24.92720032 -5.47292995 2.98190999
24.63159943 -5.40697002 3.03193998
24.48189926 -5.37306023 3.09275007
24.54899979 -5.38675022 3.17192006
24.79980087 -5.44072008 3.26837993
24.80509949 -5.44083023 3.34313989
24.75289917 -5.42830992 3.41233993
24.74419975 -5.42535019 3.48565006
24.82570076 -5.44215012 3.56831002
24.93899918 -5.46591997 3.65489006
28.65830040 -6.27983999 4.13796997
25.11809921 -5.50301981 3.82487988
24.87339973 -5.44832993 3.87205005
24.80999947 -5.43339014 3.93934011
24.38470078 -5.33919001 3.96219993
24.23970032 -5.30639982 4.01753998
24.09740067 -5.27421999 4.07241011
24.03260040 -5.25899982 4.13660002
24.02479935 -5.25624990 4.20807981
31.91690063 -7.10008001 1.24248004
31.88419914 -7.09142017 1.33704996
31.78479958 -7.06794977 1.43052995
31.62759972 -7.03161001 1.52247000
31.07279968 -6.90693998 1.60571003
30.65449905 -6.81264019 1.68871999
30.63220024 -6.80635977 1.77935004
30.61070061 -6.80024004 1.86986995
28.13479996 -6.24901009 1.88306999
28.37540054 -6.30120993 1.97507000
28.18840027 -6.25846004 2.05252004
28.15719986 -6.25032997 2.13516998
28.09269905 -6.23478985 2.21620989
28.04360008 -6.22267008 2.29759002
28.15600014 -6.24640989 2.38667011
28.45450020 -6.31138992 2.48619008
28.24959946 -6.26471996 2.55965996
28.26189995 -6.26621008 2.64458990
26.51779938 -5.87835979 2.62192988
26.33110046 -5.83584023 2.68901992
25.77599907 -5.71168995 2.73022008
25.78870010 -5.71339989 2.80804992
25.71649933 -5.69629002 2.87976003
25.63730049 -5.67762995 2.95053005
24.88619995 -5.51022005 2.96759009
24.67350006 -5.46203995 3.02448010
24.52680016 -5.42849016 3.08575010
24.60460091 -5.44465017 3.16599989
24.93799973 -5.51734018 3.27008009
24.81310081 -5.48861980 3.33298993
24.65399933 -5.45235014 3.39186001
24.75709915 -5.47408009 3.47610998
24.99010086 -5.52451992 3.57445002
24.94020081 -5.51239014 3.64415002
24.98909950 -5.52212000 3.72439003
25.07670021 -5.54035997 3.80931997
24.82819939 -5.48437023 3.85605001
24.73870087 -5.46353006 3.92016006
24.54719925 -5.42016983 3.97141004
24.24230003 -5.35177994 4.00742006
24.05649948 -5.30972004 4.05682993
23.99469948 -5.29502010 4.12132978
24.02370071 -5.30037022 4.19763994
31.90379906 -7.14949989 1.25080001
31.87779999 -7.14231014 1.34544003
31.83600044 -7.13155985 1.43970001
31.81250000 -7.12490988 1.53402996
30.97310066 -6.93556023 1.61206996
