5.882352941176470784e-01 0.000000000000000000e+00 0.000000000000000000e+00
8.823529411764705621e-01 0.000000000000000000e+00 0.000000000000000000e+00
1.176470588235294157e+00 0.000000000000000000e+00 0.000000000000000000e+00
1.470588235294117752e+00 0.000000000000000000e+00 0.000000000000000000e+00
1.764705882352941124e+00 0.000000000000000000e+00 0.000000000000000000e+00
2.058823529411764941e+00 0.000000000000000000e+00 0.000000000000000000e+00
2.352941176470588314e+00 0.000000000000000000e+00 0.000000000000000000e+00
2.647058823529411686e+00 0.000000000000000000e+00 0.000000000000000000e+00
2.941176470588235503e+00 0.000000000000000000e+00 0.000000000000000000e+00
3.235294117647058876e+00 0.000000000000000000e+00 0.000000000000000000e+00
3.529411764705882248e+00 0.000000000000000000e+00 0.000000000000000000e+00
3.823529411764706065e+00 0.000000000000000000e+00 0.000000000000000000e+00
4.117647058823529882e+00 0.000000000000000000e+00 0.000000000000000000e+00
4.411764705882353255e+00 0.000000000000000000e+00 0.000000000000000000e+00
4.705882352941176627e+00 0.000000000000000000e+00 0.000000000000000000e+00
5.000000000000000000e+00 0.000000000000000000e+00 0.000000000000000000e+00
0.000000000000000000e+00 0.000000000000000000e+00 2.941176470588235392e-01
2.941176470588235392e-01 0.000000000000000000e+00 2.941176470588235392e-01
5.882352941176470784e-01 0.000000000000000000e+00 2.941176470588235392e-01
8.823529411764705621e-01 0.000000000000000000e+00 2.941176470588235392e-01
1.176470588235294157e+00 0.000000000000000000e+00 2.941176470588235392e-01
1.470588235294117752e+00 0.000000000000000000e+00 2.941176470588235392e-01
1.764705882352941124e+00 0.000000000000000000e+00 2.941176470588235392e-01
2.058823529411764941e+00 0.000000000000000000e+00 2.941176470588235392e-01
2.352941176470588314e+00 0.000000000000000000e+00 2.941176470588235392e-01
2.647058823529411686e+00 0.000000000000000000e+00 2.941176470588235392e-01
2.941176470588235503e+00 0.000000000000000000e+00 2.941176470588235392e-01
3.235294117647058876e+00 0.000000000000000000e+00 2.941176470588235392e-01
3.529411764705882248e+00 0.000000000000000000e+00 2.941176470588235392e-01
3.823529411764706065e+00 0.000000000000000000e+00 2.941176470588235392e-01
4.117647058823529882e+00 0.000000000000000000e+00 2.941176470588235392e-01
4.411764705882353255e+00 0.000000000000000000e+00 2.941176470588235392e-01
4.705882352941176627e+00 0.000000000000000000e+00 2.941176470588235392e-01
5.000000000000000000e+00 0.000000000000000000e+00 2.941176470588235392e-01
0.000000000000000000e+00 0.000000000000000000e+00 5.882352941176470784e-01
2.941176470588235392e-01 0.000000000000000000e+00 5.882352941176470784e-01
5.882352941176470784e-01 0.000000000000000000e+00 5.882352941176470784e-01
8.823529411764705621e-01 0.000000000000000000e+00 5.882352941176470784e-01
1.176470588235294157e+00 0.000000000000000000e+00 5.882352941176470784e-01
1.470588235294117752e+00 0.000000000000000000e+00 5.882352941176470784e-01
1.764705882352941124e+00 0.000000000000000000e+00 5.882352941176470784e-01
2.058823529411764941e+00 0.000000000000000000e+00 5.882352941176470784e-01
2.352941176470588314e+00 0.000000000000000000e+00 5.882352941176470784e-01
2.647058823529411686e+00 0.000000000000000000e+00 5.882352941176470784e-01
2.941176470588235503e+00 0.000000000000000000e+00 5.882352941176470784e-01
3.235294117647058876e+00 0.000000000000000000e+00 5.882352941176470784e-01
3.529411764705882248e+00 0.000000000000000000e+00 5.882352941176470784e-01
3.823529411764706065e+00 0.000000000000000000e+00 5.882352941176470784e-01
4.117647058823529882e+00 0.000000000000000000e+00 5.882352941176470784e-01
4.411764705882353255e+00 0.000000000000000000e+00 5.882352941176470784e-01
4.705882352941176627e+00 0.000000000000000000e+00 5.882352941176470784e-01
5.000000000000000000e+00 0.000000000000000000e+00 5.882352941176470784e-01
0.000000000000000000e+00 0.000000000000000000e+00 8.823529411764705621e-01
2.941176470588235392e-01 0.000000000000000000e+00 8.823529411764705621e-01
5.882352941176470784e-01 0.000000000000000000e+00 8.823529411764705621e-01
8.823529411764705621e-01 0.000000000000000000e+00 8.823529411764705621e-01
1.176470588235294157e+00 0.000000000000000000e+00 8.823529411764705621e-01
1.470588235294117752e+00 0.000000000000000000e+00 8.823529411764705621e-01
1.764705882352941124e+00 0.000000000000000000e+00 8.823529411764705621e-01
2.058823529411764941e+00 0.000000000000000000e+00 8.823529411764705621e-01
2.352941176470588314e+00 0.000000000000000000e+00 8.823529411764705621e-01
2.647058823529411686e+00 0.000000000000000000e+00 8.823529411764705621e-01
2.941176470588235503e+00 0.000000000000000000e+00 8.823529411764705621e-01
3.235294117647058876e+00 0.000000000000000000e+00 8.823529411764705621e-01
3.529411764705882248e+00 0.000000000000000000e+00 8.823529411764705621e-01
3.823529411764706065e+00 0.000000000000000000e+00 8.823529411764705621e-01
4.117647058823529882e+00 0.000000000000000000e+00 8.823529411764705621e-01
4.411764705882353255e+00 0.000000000000000000e+00 8.823529411764705621e-01
4.705882352941176627e+00 0.000000000000000000e+00 8.823529411764705621e-01
5.000000000000000000e+00 0.000000000000000000e+00 8.823529411764705621e-01
0.000000000000000000e+00 0.000000000000000000e+00 1.176470588235294157e+00
2.941176470588235392e-01 0.000000000000000000e+00 1.176470588235294157e+00
5.882352941176470784e-01 0.000000000000000000e+00 1.176470588235294157e+00
8.823529411764705621e-01 0.000000000000000000e+00 1.176470588235294157e+00
1.176470588235294157e+00 0.000000000000000000e+00 1.176470588235294157e+00
1.470588235294117752e+00 0.000000000000000000e+00 1.176470588235294157e+00
1.764705882352941124e+00 0.000000000000000000e+00 1.176470588235294157e+00
2.058823529411764941e+00 0.000000000000000000e+00 1.176470588235294157e+00
2.352941176470588314e+00 0.000000000000000000e+00 1.176470588235294157e+00
2.647058823529411686e+00 0.000000000000000000e+00 1.176470588235294157e+00
2.941176470588235503e+00 0.000000000000000000e+00 1.176470588235294157e+00
3.235294117647058876e+00 0.000000000000000000e+00 1.176470588235294157e+00
3.529411764705882248e+00 0.000000000000000000e+00 1.176470588235294157e+00
3.823529411764706065e+00 0.000000000000000000e+00 1.176470588235294157e+00
4.117647058823529882e+00 0.000000000000000000e+00 1.176470588235294157e+00
4.411764705882353255e+00 0.000000000000000000e+00 1.176470588235294157e+00
4.705882352941176627e+00 0.000000000000000000e+00 1.176470588235294157e+00
5.000000000000000000e+00 0.000000000000000000e+00 1.176470588235294157e+00
0.000000000000000000e+00 0.000000000000000000e+00 1.470588235294117752e+00
2.941176470588235392e-01 0.000000000000000000e+00 1.470588235294117752e+00
5.882352941176470784e-01 0.000000000000000000e+00 1.470588235294117752e+00
8.823529411764705621e-01 0.000000000000000000e+00 1.470588235294117752e+00
1.176470588235294157e+00 0.000000000000000000e+00 1.470588235294117752e+00
1.470588235294117752e+00 0.000000000000000000e+00 1.470588235294117752e+00
1.764705882352941124e+00 0.000000000000000000e+00 1.470588235294117752e+00
2.058823529411764941e+00 0.000000000000000000e+00 1.470588235294117752e+00
2.352941176470588314e+00 0.000000000000000000e+00 1.470588235294117752e+00
2.647058823529411686e+00 0.000000000000000000e+00 1.470588235294117752e+00
2.941176470588235503e+00 0.000000000000000000e+00 1.470588235294117752e+00
3.235294117647058876e+00 0.000000000000000000e+00 1.470588235294117752e+00
3.529411764705882248e+00 0.000000000000000000e+00 1.470588235294117752e+00
3.823529411764706065e+00 0.000000000000000000e+00 1.470588235294117752e+00
4.117647058823529882e+00 0.000000000000000000e+00 1.470588235294117752e+00
4.411764705882353255e+00 0.000000000000000000e+00 1.470588235294117752e+00
4.705882352941176627e+00 0.000000000000000000e+00 1.470588235294117752e+00
5.000000000000000000e+00 0.000000000000000000e+00 1.470588235294117752e+00
0.000000000000000000e+00 0.000000000000000000e+00 1.764705882352941124e+00
2.941176470588235392e-01 0.000000000000000000e+00 1.764705882352941124e+00
5.882352941176470784e-01 0.000000000000000000e+00 1.764705882352941124e+00
8.823529411764705621e-01 0.000000000000000000e+00 1.764705882352941124e+00
1.176470588235294157e+00 0.000000000000000000e+00 1.764705882352941124e+00
1.470588235294117752e+00 0.000000000000000000e+00 1.764705882352941124e+00
1.764705882352941124e+00 0.000000000000000000e+00 1.764705882352941124e+00
2.058823529411764941e+00 0.000000000000000000e+00 1.764705882352941124e+00
2.352941176470588314e+00 0.000000000000000000e+00 1.764705882352941124e+00
2.647058823529411686e+00 0.000000000000000000e+00 1.764705882352941124e+00
2.941176470588235503e+00 0.000000000000000000e+00 1.764705882352941124e+00
3.235294117647058876e+00 0.000000000000000000e+00 1.764705882352941124e+00
3.529411764705882248e+00 0.000000000000000000e+00 1.764705882352941124e+00
3.823529411764706065e+00 0.000000000000000000e+00 1.764705882352941124e+00
4.117647058823529882e+00 0.000000000000000000e+00 1.764705882352941124e+00
4.411764705882353255e+00 0.000000000000000000e+00 1.764705882352941124e+00
4.705882352941176627e+00 0.000000000000000000e+00 1.764705882352941124e+00
5.000000000000000000e+00 0.000000000000000000e+00 1.764705882352941124e+00
0.000000000000000000e+00 0.000000000000000000e+00 2.058823529411764941e+00
2.941176470588235392e-01 0.000000000000000000e+00 2.058823529411764941e+00
5.882352941176470784e-01 0.000000000000000000e+00 2.058823529411764941e+00
8.823529411764705621e-01 0.000000000000000000e+00 2.058823529411764941e+00
1.176470588235294157e+00 0.000000000000000000e+00 2.058823529411764941e+00
1.470588235294117752e+00 0.000000000000000000e+00 2.058823529411764941e+00
1.764705882352941124e+00 0.000000000000000000e+00 2.058823529411764941e+00
2.058823529411764941e+00 0.000000000000000000e+00 2.058823529411764941e+00
2.352941176470588314e+00 0.000000000000000000e+00 2.058823529411764941e+00
2.647058823529411686e+00 0.000000000000000000e+00 2.058823529411764941e+00
2.941176470588235503e+00 0.000000000000000000e+00 2.058823529411764941e+00
3.235294117647058876e+00 0.000000000000000000e+00 2.058823529411764941e+00
3.529411764705882248e+00 0.000000000000000000e+00 2.058823529411764941e+00
3.823529411764706065e+00 0.000000000000000000e+00 2.058823529411764941e+00
4.117647058823529882e+00 0.000000000000000000e+00 2.058823529411764941e+00
4.411764705882353255e+00 0.000000000000000000e+00 2.058823529411764941e+00
4.705882352941176627e+00 0.000000000000000000e+00 2.058823529411764941e+00
5.000000000000000000e+00 0.000000000000000000e+00 2.058823529411764941e+00
0.000000000000000000e+00 0.000000000000000000e+00 2.352941176470588314e+00
2.941176470588235392e-01 0.000000000000000000e+00 2.352941176470588314e+00
5.882352941176470784e-01 0.000000000000000000e+00 2.352941176470588314e+00
8.823529411764705621e-01 0.000000000000000000e+00 2.352941176470588314e+00
1.176470588235294157e+00 0.000000000000000000e+00 2.352941176470588314e+00
1.470588235294117752e+00 0.000000000000000000e+00 2.352941176470588314e+00
1.764705882352941124e+00 0.000000000000000000e+00 2.352941176470588314e+00
2.058823529411764941e+00 0.000000000000000000e+00 2.352941176470588314e+00
2.352941176470588314e+00 0.000000000000000000e+00 2.352941176470588314e+00
2.647058823529411686e+00 0.000000000000000000e+00 2.352941176470588314e+00
2.941176470588235503e+00 0.000000000000000000e+00 2.352941176470588314e+00
3.235294117647058876e+00 0.000000000000000000e+00 2.352941176470588314e+00
3.529411764705882248e+00 0.000000000000000000e+00 2.352941176470588314e+00
3.823529411764706065e+00 0.000000000000000000e+00 2.352941176470588314e+00
4.117647058823529882e+00 0.000000000000000000e+00 2.352941176470588314e+00
4.411764705882353255e+00 0.000000000000000000e+00 2.352941176470588314e+00
4.705882352941176627e+00 0.000000000000000000e+00 2.352941176470588314e+00
5.000000000000000000e+00 0.000000000000000000e+00 2.352941176470588314e+00
0.000000000000000000e+00 0.000000000000000000e+00 2.647058823529411686e+00
2.941176470588235392e-01 0.000000000000000000e+00 2.647058823529411686e+00
5.882352941176470784e-01 0.000000000000000000e+00 2.647058823529411686e+00
8.823529411764705621e-01 0.000000000000000000e+00 2.647058823529411686e+00
1.176470588235294157e+00 0.000000000000000000e+00 2.647058823529411686e+00
1.470588235294117752e+00 0.000000000000000000e+00 2.647058823529411686e+00
1.764705882352941124e+00 0.000000000000000000e+00 2.647058823529411686e+00
2.058823529411764941e+00 0.000000000000000000e+00 2.647058823529411686e+00
2.352941176470588314e+00 0.000000000000000000e+00 2.647058823529411686e+00
2.647058823529411686e+00 0.000000000000000000e+00 2.647058823529411686e+00
2.941176470588235503e+00 0.000000000000000000e+00 2.647058823529411686e+00
3.235294117647058876e+00 0.000000000000000000e+00 2.647058823529411686e+00
3.529411764705882248e+00 0.000000000000000000e+00 2.647058823529411686e+00
3.823529411764706065e+00 0.000000000000000000e+00 2.647058823529411686e+00
4.117647058823529882e+00 0.000000000000000000e+00 2.647058823529411686e+00
4.411764705882353255e+00 0.000000000000000000e+00 2.647058823529411686e+00
4.705882352941176627e+00 0.000000000000000000e+00 2.647058823529411686e+00
5.000000000000000000e+00 0.000000000000000000e+00 2.647058823529411686e+00
0.000000000000000000e+00 0.000000000000000000e+00 2.941176470588235503e+00
2.941176470588235392e-01 0.000000000000000000e+00 2.941176470588235503e+00
5.882352941176470784e-01 0.000000000000000000e+00 2.941176470588235503e+00
8.823529411764705621e-01 0.000000000000000000e+00 2.941176470588235503e+00
1.176470588235294157e+00 0.000000000000000000e+00 2.941176470588235503e+00
1.470588235294117752e+00 0.000000000000000000e+00 2.941176470588235503e+00
1.764705882352941124e+00 0.000000000000000000e+00 2.941176470588235503e+00
2.058823529411764941e+00 0.000000000000000000e+00 2.941176470588235503e+00
2.352941176470588314e+00 0.000000000000000000e+00 2.941176470588235503e+00
2.647058823529411686e+00 0.000000000000000000e+00 2.941176470588235503e+00
2.941176470588235503e+00 0.000000000000000000e+00 2.941176470588235503e+00
3.235294117647058876e+00 0.000000000000000000e+00 2.941176470588235503e+00
3.529411764705882248e+00 0.000000000000000000e+00 2.941176470588235503e+00
3.823529411764706065e+00 0.000000000000000000e+00 2.941176470588235503e+00
4.117647058823529882e+00 0.000000000000000000e+00 2.941176470588235503e+00
4.411764705882353255e+00 0.000000000000000000e+00 2.941176470588235503e+00
4.705882352941176627e+00 0.000000000000000000e+00 2.941176470588235503e+00
5.000000000000000000e+00 0.000000000000000000e+00 2.941176470588235503e+00
0.000000000000000000e+00 0.000000000000000000e+00 3.235294117647058876e+00
2.941176470588235392e-01 0.000000000000000000e+00 3.235294117647058876e+00
5.882352941176470784e-01 0.000000000000000000e+00 3.235294117647058876e+00
8.823529411764705621e-01 0.000000000000000000e+00 3.235294117647058876e+00
1.176470588235294157e+00 0.000000000000000000e+00 3.235294117647058876e+00
1.470588235294117752e+00 0.000000000000000000e+00 3.235294117647058876e+00
1.764705882352941124e+00 0.000000000000000000e+00 3.235294117647058876e+00
2.058823529411764941e+00 0.000000000000000000e+00 3.235294117647058876e+00
2.352941176470588314e+00 0.000000000000000000e+00 3.235294117647058876e+00
2.647058823529411686e+00 0.000000000000000000e+00 3.235294117647058876e+00
2.941176470588235503e+00 0.000000000000000000e+00 3.235294117647058876e+00
3.235294117647058876e+00 0.000000000000000000e+00 3.235294117647058876e+00
3.529411764705882248e+00 0.000000000000000000e+00 3.235294117647058876e+00
3.823529411764706065e+00 0.000000000000000000e+00 3.235294117647058876e+00
4.117647058823529882e+00 0.000000000000000000e+00 3.235294117647058876e+00
4.411764705882353255e+00 0.000000000000000000e+00 3.235294117647058876e+00
4.705882352941176627e+00 0.000000000000000000e+00 3.235294117647058876e+00
5.000000000000000000e+00 0.000000000000000000e+00 3.235294117647058876e+00
0.000000000000000000e+00 0.000000000000000000e+00 3.529411764705882248e+00
2.941176470588235392e-01 0.000000000000000000e+00 3.529411764705882248e+00
5.882352941176470784e-01 0.000000000000000000e+00 3.529411764705882248e+00
8.823529411764705621e-01 0.000000000000000000e+00 3.529411764705882248e+00
1.176470588235294157e+00 0.000000000000000000e+00 3.529411764705882248e+00
1.470588235294117752e+00 0.000000000000000000e+00 3.529411764705882248e+00
1.764705882352941124e+00 0.000000000000000000e+00 3.529411764705882248e+00
2.058823529411764941e+00 0.000000000000000000e+00 3.529411764705882248e+00
2.352941176470588314e+00 0.000000000000000000e+00 3.529411764705882248e+00
2.647058823529411686e+00 0.000000000000000000e+00 3.529411764705882248e+00
2.941176470588235503e+00 0.000000000000000000e+00 3.529411764705882248e+00
3.235294117647058876e+00 0.000000000000000000e+00 3.529411764705882248e+00
3.529411764705882248e+00 0.000000000000000000e+00 3.529411764705882248e+00
3.823529411764706065e+00 0.000000000000000000e+00 3.529411764705882248e+00
4.117647058823529882e+00 0.000000000000000000e+00 3.529411764705882248e+00
4.411764705882353255e+00 0.000000000000000000e+00 3.529411764705882248e+00
4.705882352941176627e+00 0.000000000000000000e+00 3.529411764705882248e+00
5.000000000000000000e+00 0.000000000000000000e+00 3.529411764705882248e+00
0.000000000000000000e+00 0.000000000000000000e+00 3.823529411764706065e+00
2.941176470588235392e-01 0.000000000000000000e+00 3.823529411764706065e+00
5.882352941176470784e-01 0.000000000000000000e+00 3.823529411764706065e+00
8.823529411764705621e-01 0.000000000000000000e+00 3.823529411764706065e+00
1.176470588235294157e+00 0.000000000000000000e+00 3.823529411764706065e+00
1.470588235294117752e+00 0.000000000000000000e+00 3.823529411764706065e+00
1.764705882352941124e+00 0.000000000000000000e+00 3.823529411764706065e+00
2.058823529411764941e+00 0.000000000000000000e+00 3.823529411764706065e+00
2.352941176470588314e+00 0.000000000000000000e+00 3.823529411764706065e+00
2.647058823529411686e+00 0.000000000000000000e+00 3.823529411764706065e+00
2.941176470588235503e+00 0.000000000000000000e+00 3.823529411764706065e+00
3.235294117647058876e+00 0.000000000000000000e+00 3.823529411764706065e+00
3.529411764705882248e+00 0.000000000000000000e+00 3.823529411764706065e+00
3.823529411764706065e+00 0.000000000000000000e+00 3.823529411764706065e+00
4.117647058823529882e+00 0.000000000000000000e+00 3.823529411764706065e+00
4.411764705882353255e+00 0.000000000000000000e+00 3.823529411764706065e+00
4.705882352941176627e+00 0.000000000000000000e+00 3.823529411764706065e+00
5.000000000000000000e+00 0.000000000000000000e+00 3.823529411764706065e+00
0.000000000000000000e+00 0.000000000000000000e+00 4.117647058823529882e+00
2.941176470588235392e-01 0.000000000000000000e+00 4.117647058823529882e+00
5.882352941176470784e-01 0.000000000000000000e+00 4.117647058823529882e+00
8.823529411764705621e-01 0.000000000000000000e+00 4.117647058823529882e+00
1.176470588235294157e+00 0.000000000000000000e+00 4.117647058823529882e+00
1.470588235294117752e+00 0.000000000000000000e+00 4.117647058823529882e+00
1.764705882352941124e+00 0.000000000000000000e+00 4.117647058823529882e+00
2.058823529411764941e+00 0.000000000000000000e+00 4.117647058823529882e+00
2.352941176470588314e+00 0.000000000000000000e+00 4.117647058823529882e+00
2.647058823529411686e+00 0.000000000000000000e+00 4.117647058823529882e+00
2.941176470588235503e+00 0.000000000000000000e+00 4.117647058823529882e+00
3.235294117647058876e+00 0.000000000000000000e+00 4.117647058823529882e+00
3.529411764705882248e+00 0.000000000000000000e+00 4.117647058823529882e+00
3.823529411764706065e+00 0.000000000000000000e+00 4.117647058823529882e+00
4.117647058823529882e+00 0.000000000000000000e+00 4.117647058823529882e+00
4.411764705882353255e+00 0.000000000000000000e+00 4.117647058823529882e+00
4.705882352941176627e+00 0.000000000000000000e+00 4.117647058823529882e+00
5.000000000000000000e+00 0.000000000000000000e+00 4.117647058823529882e+00
0.000000000000000000e+00 0.000000000000000000e+00 4.411764705882353255e+00
2.941176470588235392e-01 0.000000000000000000e+00 4.411764705882353255e+00
5.882352941176470784e-01 0.000000000000000000e+00 4.411764705882353255e+00
8.823529411764705621e-01 0.000000000000000000e+00 4.411764705882353255e+00
1.176470588235294157e+00 0.000000000000000000e+00 4.411764705882353255e+00
1.470588235294117752e+00 0.000000000000000000e+00 4.411764705882353255e+00
1.764705882352941124e+00 0.000000000000000000e+00 4.411764705882353255e+00
2.058823529411764941e+00 0.000000000000000000e+00 4.411764705882353255e+00
2.352941176470588314e+00 0.000000000000000000e+00 4.411764705882353255e+00
2.647058823529411686e+00 0.000000000000000000e+00 4.411764705882353255e+00
2.941176470588235503e+00 0.000000000000000000e+00 4.411764705882353255e+00
3.235294117647058876e+00 0.000000000000000000e+00 4.411764705882353255e+00
3.529411764705882248e+00 0.000000000000000000e+00 4.411764705882353255e+00
3.823529411764706065e+00 0.000000000000000000e+00 4.411764705882353255e+00
4.117647058823529882e+00 0.000000000000000000e+00 4.411764705882353255e+00
4.411764705882353255e+00 0.000000000000000000e+00 4.411764705882353255e+00
4.705882352941176627e+00 0.000000000000000000e+00 4.411764705882353255e+00
5.000000000000000000e+00 0.000000000000000000e+00 4.411764705882353255e+00
0.000000000000000000e+00 0.000000000000000000e+00 4.705882352941176627e+00
2.941176470588235392e-01 0.000000000000000000e+00 4.705882352941176627e+00
5.882352941176470784e-01 0.000000000000000000e+00 4.705882352941176627e+00
8.823529411764705621e-01 0.000000000000000000e+00 4.705882352941176627e+00
1.176470588235294157e+00 0.000000000000000000e+00 4.705882352941176627e+00
1.470588235294117752e+00 0.000000000000000000e+00 4.705882352941176627e+00
1.764705882352941124e+00 0.000000000000000000e+00 4.705882352941176627e+00
2.058823529411764941e+00 0.000000000000000000e+00 4.705882352941176627e+00
2.352941176470588314e+00 0.000000000000000000e+00 4.705882352941176627e+00
2.647058823529411686e+00 0.000000000000000000e+00 4.705882352941176627e+00
2.941176470588235503e+00 0.000000000000000000e+00 4.705882352941176627e+00
3.235294117647058876e+00 0.000000000000000000e+00 4.705882352941176627e+00
3.529411764705882248e+00 0.000000000000000000e+00 4.705882352941176627e+00
3.823529411764706065e+00 0.000000000000000000e+00 4.705882352941176627e+00
4.117647058823529882e+00 0.000000000000000000e+00 4.705882352941176627e+00
4.411764705882353255e+00 0.000000000000000000e+00 4.705882352941176627e+00
4.705882352941176627e+00 0.000000000000000000e+00 4.705882352941176627e+00
5.000000000000000000e+00 0.000000000000000000e+00 4.705882352941176627e+00
0.000000000000000000e+00 0.000000000000000000e+00 5.000000000000000000e+00
2.941176470588235392e-01 0.000000000000000000e+00 5.000000000000000000e+00
5.882352941176470784e-01 0.000000000000000000e+00 5.000000000000000000e+00
8.823529411764705621e-01 0.000000000000000000e+00 5.000000000000000000e+00
1.176470588235294157e+00 0.000000000000000000e+00 5.000000000000000000e+00
1.470588235294117752e+00 0.000000000000000000e+00 5.000000000000000000e+00
1.764705882352941124e+00 0.000000000000000000e+00 5.000000000000000000e+00
2.058823529411764941e+00 0.000000000000000000e+00 5.000000000000000000e+00
2.352941176470588314e+00 0.000000000000000000e+00 5.000000000000000000e+00
2.647058823529411686e+00 0.000000000000000000e+00 5.000000000000000000e+00
2.941176470588235503e+00 0.000000000000000000e+00 5.000000000000000000e+00
3.235294117647058876e+00 0.000000000000000000e+00 5.000000000000000000e+00
3.529411764705882248e+00 0.000000000000000000e+00 5.000000000000000000e+00
3.823529411764706065e+00 0.000000000000000000e+00 5.000000000000000000e+00
4.117647058823529882e+00 0.000000000000000000e+00 5.000000000000000000e+00
4.411764705882353255e+00 0.000000000000000000e+00 5.000000000000000000e+00
4.705882352941176627e+00 0.000000000000000000e+00 5.000000000000000000e+00
5.000000000000000000e+00 0.000000000000000000e+00 5.000000000000000000e+00
0.000000000000000000e+00 5.000000000000000000e+00 0.000000000000000000e+00
2.941176470588235392e-01 5.000000000000000000e+00 0.000000000000000000e+00
5.882352941176470784e-01 5.000000000000000000e+00 0.000000000000000000e+00
8.823529411764705621e-01 5.000000000000000000e+00 0.000000000000000000e+00
1.176470588235294157e+00 5.000000000000000000e+00 0.000000000000000000e+00
1.470588235294117752e+00 5.000000000000000000e+00 0.000000000000000000e+00
1.764705882352941124e+00 5.000000000000000000e+00 0.000000000000000000e+00
2.058823529411764941e+00 5.000000000000000000e+00 0.000000000000000000e+00
2.352941176470588314e+00 5.000000000000000000e+00 0.000000000000000000e+00
2.647058823529411686e+00 5.000000000000000000e+00 0.000000000000000000e+00
2.941176470588235503e+00 5.000000000000000000e+00 0.000000000000000000e+00
3.235294117647058876e+00 5.000000000000000000e+00 0.000000000000000000e+00
3.529411764705882248e+00 5.000000000000000000e+00 0.000000000000000000e+00
3.823529411764706065e+00 5.000000000000000000e+00 0.000000000000000000e+00
4.117647058823529882e+00 5.000000000000000000e+00 0.000000000000000000e+00
4.411764705882353255e+00 5.000000000000000000e+00 0.000000000000000000e+00
4.705882352941176627e+00 5.000000000000000000e+00 0.000000000000000000e+00
5.000000000000000000e+00 5.000000000000000000e+00 0.000000000000000000e+00
0.000000000000000000e+00 5.000000000000000000e+00 2.941176470588235392e-01
2.941176470588235392e-01 5.000000000000000000e+00 2.941176470588235392e-01
5.882352941176470784e-01 5.000000000000000000e+00 2.941176470588235392e-01
8.823529411764705621e-01 5.000000000000000000e+00 2.941176470588235392e-01
1.176470588235294157e+00 5.000000000000000000e+00 2.941176470588235392e-01
1.470588235294117752e+00 5.000000000000000000e+00 2.941176470588235392e-01
1.764705882352941124e+00 5.000000000000000000e+00 2.941176470588235392e-01
2.058823529411764941e+00 5.000000000000000000e+00 2.941176470588235392e-01
2.352941176470588314e+00 5.000000000000000000e+00 2.941176470588235392e-01
2.647058823529411686e+00 5.000000000000000000e+00 2.941176470588235392e-01
2.941176470588235503e+00 5.000000000000000000e+00 2.941176470588235392e-01
3.235294117647058876e+00 5.000000000000000000e+00 2.941176470588235392e-01
3.529411764705882248e+00 5.000000000000000000e+00 2.941176470588235392e-01
3.823529411764706065e+00 5.000000000000000000e+00 2.941176470588235392e-01
4.117647058823529882e+00 5.000000000000000000e+00 2.941176470588235392e-01
4.411764705882353255e+00 5.000000000000000000e+00 2.941176470588235392e-01
4.705882352941176627e+00 5.000000000000000000e+00 2.941176470588235392e-01
5.000000000000000000e+00 5.000000000000000000e+00 2.941176470588235392e-01
0.000000000000000000e+00 5.000000000000000000e+00 5.882352941176470784e-01
2.941176470588235392e-01 5.000000000000000000e+00 5.882352941176470784e-01
5.882352941176470784e-01 5.000000000000000000e+00 5.882352941176470784e-01
8.823529411764705621e-01 5.000000000000000000e+00 5.882352941176470784e-01
1.176470588235294157e+00 5.000000000000000000e+00 5.882352941176470784e-01
1.470588235294117752e+00 5.000000000000000000e+00 5.882352941176470784e-01
1.764705882352941124e+00 5.000000000000000000e+00 5.882352941176470784e-01
2.058823529411764941e+00 5.000000000000000000e+00 5.882352941176470784e-01
2.352941176470588314e+00 5.000000000000000000e+00 5.882352941176470784e-01
2.647058823529411686e+00 5.000000000000000000e+00 5.882352941176470784e-01
2.941176470588235503e+00 5.000000000000000000e+00 5.882352941176470784e-01
3.235294117647058876e+00 5.000000000000000000e+00 5.882352941176470784e-01
3.529411764705882248e+00 5.000000000000000000e+00 5.882352941176470784e-01
3.823529411764706065e+00 5.000000000000000000e+00 5.882352941176470784e-01
4.117647058823529882e+00 5.000000000000000000e+00 5.882352941176470784e-01
4.411764705882353255e+00 5.000000000000000000e+00 5.882352941176470784e-01
4.705882352941176627e+00 5.000000000000000000e+00 5.882352941176470784e-01
5.000000000000000000e+00 5.000000000000000000e+00 5.882352941176470784e-01
0.000000000000000000e+00 5.000000000000000000e+00 8.823529411764705621e-01
2.941176470588235392e-01 5.000000000000000000e+00 8.823529411764705621e-01
5.882352941176470784e-01 5.000000000000000000e+00 8.823529411764705621e-01
8.823529411764705621e-01 5.000000000000000000e+00 8.823529411764705621e-01
1.176470588235294157e+00 5.000000000000000000e+00 8.823529411764705621e-01
1.470588235294117752e+00 5.000000000000000000e+00 8.823529411764705621e-01
1.764705882352941124e+00 5.000000000000000000e+00 8.823529411764705621e-01
2.058823529411764941e+00 5.000000000000000000e+00 8.823529411764705621e-01
2.352941176470588314e+00 5.000000000000000000e+00 8.823529411764705621e-01
2.647058823529411686e+00 5.000000000000000000e+00 8.823529411764705621e-01
2.941176470588235503e+00 5.000000000000000000e+00 8.823529411764705621e-01
3.235294117647058876e+00 5.000000000000000000e+00 8.823529411764705621e-01
3.529411764705882248e+00 5.000000000000000000e+00 8.823529411764705621e-01
3.823529411764706065e+00 5.000000000000000000e+00 8.823529411764705621e-01
4.117647058823529882e+00 5.000000000000000000e+00 8.823529411764705621e-01
4.411764705882353255e+00 5.000000000000000000e+00 8.823529411764705621e-01
4.705882352941176627e+00 5.000000000000000000e+00 8.823529411764705621e-01
5.000000000000000000e+00 5.000000000000000000e+00 8.823529411764705621e-01
0.000000000000000000e+00 5.000000000000000000e+00 1.176470588235294157e+00
2.941176470588235392e-01 5.000000000000000000e+00 1.176470588235294157e+00
5.882352941176470784e-01 5.000000000000000000e+00 1.176470588235294157e+00
8.823529411764705621e-01 5.000000000000000000e+00 1.176470588235294157e+00
1.176470588235294157e+00 5.000000000000000000e+00 1.176470588235294157e+00
1.470588235294117752e+00 5.000000000000000000e+00 1.176470588235294157e+00
1.764705882352941124e+00 5.000000000000000000e+00 1.176470588235294157e+00
2.058823529411764941e+00 5.000000000000000000e+00 1.176470588235294157e+00
2.352941176470588314e+00 5.000000000000000000e+00 1.176470588235294157e+00
2.647058823529411686e+00 5.000000000000000000e+00 1.176470588235294157e+00
2.941176470588235503e+00 5.000000000000000000e+00 1.176470588235294157e+00
3.235294117647058876e+00 5.000000000000000000e+00 1.176470588235294157e+00
3.529411764705882248e+00 5.000000000000000000e+00 1.176470588235294157e+00
3.823529411764706065e+00 5.000000000000000000e+00 1.176470588235294157e+00
4.117647058823529882e+00 5.000000000000000000e+00 1.176470588235294157e+00
4.411764705882353255e+00 5.000000000000000000e+00 1.176470588235294157e+00
4.705882352941176627e+00 5.000000000000000000e+00 1.176470588235294157e+00
5.000000000000000000e+00 5.000000000000000000e+00 1.176470588235294157e+00
0.000000000000000000e+00 5.000000000000000000e+00 1.470588235294117752e+00
2.941176470588235392e-01 5.000000000000000000e+00 1.470588235294117752e+00
5.882352941176470784e-01 5.000000000000000000e+00 1.470588235294117752e+00
8.823529411764705621e-01 5.000000000000000000e+00 1.470588235294117752e+00
1.176470588235294157e+00 5.000000000000000000e+00 1.470588235294117752e+00
1.470588235294117752e+00 5.000000000000000000e+00 1.470588235294117752e+00
1.764705882352941124e+00 5.000000000000000000e+00 1.470588235294117752e+00
2.058823529411764941e+00 5.000000000000000000e+00 1.470588235294117752e+00
2.352941176470588314e+00 5.000000000000000000e+00 1.470588235294117752e+00
2.647058823529411686e+00 5.000000000000000000e+00 1.470588235294117752e+00
2.941176470588235503e+00 5.000000000000000000e+00 1.470588235294117752e+00
3.235294117647058876e+00 5.000000000000000000e+00 1.470588235294117752e+00
3.529411764705882248e+00 5.000000000000000000e+00 1.470588235294117752e+00
3.823529411764706065e+00 5.000000000000000000e+00 1.470588235294117752e+00
4.117647058823529882e+00 5.000000000000000000e+00 1.470588235294117752e+00
4.411764705882353255e+00 5.000000000000000000e+00 1.470588235294117752e+00
4.705882352941176627e+00 5.000000000000000000e+00 1.470588235294117752e+00
5.000000000000000000e+00 5.000000000000000000e+00 1.470588235294117752e+00
0.000000000000000000e+00 5.000000000000000000e+00 1.764705882352941124e+00
2.941176470588235392e-01 5.000000000000000000e+00 1.764705882352941124e+00
5.882352941176470784e-01 5.000000000000000000e+00 1.764705882352941124e+00
8.823529411764705621e-01 5.000000000000000000e+00 1.764705882352941124e+00
1.176470588235294157e+00 5.000000000000000000e+00 1.764705882352941124e+00
1.470588235294117752e+00 5.000000000000000000e+00 1.764705882352941124e+00
1.764705882352941124e+00 5.000000000000000000e+00 1.764705882352941124e+00
2.058823529411764941e+00 5.000000000000000000e+00 1.764705882352941124e+00
2.352941176470588314e+00 5.000000000000000000e+00 1.764705882352941124e+00
2.647058823529411686e+00 5.000000000000000000e+00 1.764705882352941124e+00
2.941176470588235503e+00 5.000000000000000000e+00 1.764705882352941124e+00
3.235294117647058876e+00 5.000000000000000000e+00 1.764705882352941124e+00
3.529411764705882248e+00 5.000000000000000000e+00 1.764705882352941124e+00
3.823529411764706065e+00 5.000000000000000000e+00 1.764705882352941124e+00
4.117647058823529882e+00 5.000000000000000000e+00 1.764705882352941124e+00
4.411764705882353255e+00 5.000000000000000000e+00 1.764705882352941124e+00
4.705882352941176627e+00 5.000000000000000000e+00 1.764705882352941124e+00
5.000000000000000000e+00 5.000000000000000000e+00 1.764705882352941124e+00
0.000000000000000000e+00 5.000000000000000000e+00 2.058823529411764941e+00
2.941176470588235392e-01 5.000000000000000000e+00 2.058823529411764941e+00
5.882352941176470784e-01 5.000000000000000000e+00 2.058823529411764941e+00
8.823529411764705621e-01 5.000000000000000000e+00 2.058823529411764941e+00
1.176470588235294157e+00 5.000000000000000000e+00 2.058823529411764941e+00
1.470588235294117752e+00 5.000000000000000000e+00 2.058823529411764941e+00
1.764705882352941124e+00 5.000000000000000000e+00 2.058823529411764941e+00
2.058823529411764941e+00 5.000000000000000000e+00 2.058823529411764941e+00
2.352941176470588314e+00 5.000000000000000000e+00 2.058823529411764941e+00
2.647058823529411686e+00 5.000000000000000000e+00 2.058823529411764941e+00
2.941176470588235503e+00 5.000000000000000000e+00 2.058823529411764941e+00
3.235294117647058876e+00 5.000000000000000000e+00 2.058823529411764941e+00
3.529411764705882248e+00 5.000000000000000000e+00 2.058823529411764941e+00
3.823529411764706065e+00 5.000000000000000000e+00 2.058823529411764941e+00
4.117647058823529882e+00 5.000000000000000000e+00 2.058823529411764941e+00
4.411764705882353255e+00 5.000000000000000000e+00 2.058823529411764941e+00
4.705882352941176627e+00 5.000000000000000000e+00 2.058823529411764941e+00
5.000000000000000000e+00 5.000000000000000000e+00 2.058823529411764941e+00
0.000000000000000000e+00 5.000000000000000000e+00 2.352941176470588314e+00
2.941176470588235392e-01 5.000000000000000000e+00 2.352941176470588314e+00
5.882352941176470784e-01 5.000000000000000000e+00 2.352941176470588314e+00
8.823529411764705621e-01 5.000000000000000000e+00 2.352941176470588314e+00
1.176470588235294157e+00 5.000000000000000000e+00 2.352941176470588314e+00
1.470588235294117752e+00 5.000000000000000000e+00 2.352941176470588314e+00
1.764705882352941124e+00 5.000000000000000000e+00 2.352941176470588314e+00
2.058823529411764941e+00 5.000000000000000000e+00 2.352941176470588314e+00
2.352941176470588314e+00 5.000000000000000000e+00 2.352941176470588314e+00
2.647058823529411686e+00 5.000000000000000000e+00 2.352941176470588314e+00
2.941176470588235503e+00 5.000000000000000000e+00 2.352941176470588314e+00
3.235294117647058876e+00 5.000000000000000000e+00 2.352941176470588314e+00
3.529411764705882248e+00 5.000000000000000000e+00 2.352941176470588314e+00
3.823529411764706065e+00 5.000000000000000000e+00 2.352941176470588314e+00
4.117647058823529882e+00 5.000000000000000000e+00 2.352941176470588314e+00
4.411764705882353255e+00 5.000000000000000000e+00 2.352941176470588314e+00
4.705882352941176627e+00 5.000000000000000000e+00 2.352941176470588314e+00
5.000000000000000000e+00 5.000000000000000000e+00 2.352941176470588314e+00
0.000000000000000000e+00 5.000000000000000000e+00 2.647058823529411686e+00
2.941176470588235392e-01 5.000000000000000000e+00 2.647058823529411686e+00
5.882352941176470784e-01 5.000000000000000000e+00 2.647058823529411686e+00
8.823529411764705621e-01 5.000000000000000000e+00 2.647058823529411686e+00
1.176470588235294157e+00 5.000000000000000000e+00 2.647058823529411686e+00
1.470588235294117752e+00 5.000000000000000000e+00 2.647058823529411686e+00
1.764705882352941124e+00 5.000000000000000000e+00 2.647058823529411686e+00
2.058823529411764941e+00 5.000000000000000000e+00 2.647058823529411686e+00
2.352941176470588314e+00 5.000000000000000000e+00 2.647058823529411686e+00
2.647058823529411686e+00 5.000000000000000000e+00 2.647058823529411686e+00
2.941176470588235503e+00 5.000000000000000000e+00 2.647058823529411686e+00
3.235294117647058876e+00 5.000000000000000000e+00 2.647058823529411686e+00
3.529411764705882248e+00 5.000000000000000000e+00 2.647058823529411686e+00
3.823529411764706065e+00 5.000000000000000000e+00 2.647058823529411686e+00
4.117647058823529882e+00 5.000000000000000000e+00 2.647058823529411686e+00
4.411764705882353255e+00 5.000000000000000000e+00 2.647058823529411686e+00
4.705882352941176627e+00 5.000000000000000000e+00 2.647058823529411686e+00
5.000000000000000000e+00 5.000000000000000000e+00 2.647058823529411686e+00
0.000000000000000000e+00 5.000000000000000000e+00 2.941176470588235503e+00
2.941176470588235392e-01 5.000000000000000000e+00 2.941176470588235503e+00
5.882352941176470784e-01 5.000000000000000000e+00 2.941176470588235503e+00
8.823529411764705621e-01 5.000000000000000000e+00 2.941176470588235503e+00
1.176470588235294157e+00 5.000000000000000000e+00 2.941176470588235503e+00
1.470588235294117752e+00 5.000000000000000000e+00 2.941176470588235503e+00
1.764705882352941124e+00 5.000000000000000000e+00 2.941176470588235503e+00
2.058823529411764941e+00 5.000000000000000000e+00 2.941176470588235503e+00
2.352941176470588314e+00 5.000000000000000000e+00 2.941176470588235503e+00
2.647058823529411686e+00 5.000000000000000000e+00 2.941176470588235503e+00
2.941176470588235503e+00 5.000000000000000000e+00 2.941176470588235503e+00
3.235294117647058876e+00 5.000000000000000000e+00 2.941176470588235503e+00
3.529411764705882248e+00 5.000000000000000000e+00 2.941176470588235503e+00
3.823529411764706065e+00 5.000000000000000000e+00 2.941176470588235503e+00
4.117647058823529882e+00 5.000000000000000000e+00 2.941176470588235503e+00
4.411764705882353255e+00 5.000000000000000000e+00 2.941176470588235503e+00
4.705882352941176627e+00 5.000000000000000000e+00 2.941176470588235503e+00
5.000000000000000000e+00 5.000000000000000000e+00 2.941176470588235503e+00
0.000000000000000000e+00 5.000000000000000000e+00 3.235294117647058876e+00
2.941176470588235392e-01 5.000000000000000000e+00 3.235294117647058876e+00
5.882352941176470784e-01 5.000000000000000000e+00 3.235294117647058876e+00
8.823529411764705621e-01 5.000000000000000000e+00 3.235294117647058876e+00
1.176470588235294157e+00 5.000000000000000000e+00 3.235294117647058876e+00
1.470588235294117752e+00 5.000000000000000000e+00 3.235294117647058876e+00
1.764705882352941124e+00 5.000000000000000000e+00 3.235294117647058876e+00
2.058823529411764941e+00 5.000000000000000000e+00 3.235294117647058876e+00
2.352941176470588314e+00 5.000000000000000000e+00 3.235294117647058876e+00
2.647058823529411686e+00 5.000000000000000000e+00 3.235294117647058876e+00
2.941176470588235503e+00 5.000000000000000000e+00 3.235294117647058876e+00
3.235294117647058876e+00 5.000000000000000000e+00 3.235294117647058876e+00
3.529411764705882248e+00 5.000000000000000000e+00 3.235294117647058876e+00
3.823529411764706065e+00 5.000000000000000000e+00 3.235294117647058876e+00
4.117647058823529882e+00 5.000000000000000000e+00 3.235294117647058876e+00
4.411764705882353255e+00 5.000000000000000000e+00 3.235294117647058876e+00
4.705882352941176627e+00 5.000000000000000000e+00 3.235294117647058876e+00
5.000000000000000000e+00 5.000000000000000000e+00 3.235294117647058876e+00
0.000000000000000000e+00 5.000000000000000000e+00 3.529411764705882248e+00
2.941176470588235392e-01 5.000000000000000000e+00 3.529411764705882248e+00
5.882352941176470784e-01 5.000000000000000000e+00 3.529411764705882248e+00
8.823529411764705621e-01 5.000000000000000000e+00 3.529411764705882248e+00
1.176470588235294157e+00 5.000000000000000000e+00 3.529411764705882248e+00
1.470588235294117752e+00 5.000000000000000000e+00 3.529411764705882248e+00
1.764705882352941124e+00 5.000000000000000000e+00 3.529411764705882248e+00
2.058823529411764941e+00 5.000000000000000000e+00 3.529411764705882248e+00
2.352941176470588314e+00 5.000000000000000000e+00 3.529411764705882248e+00
2.647058823529411686e+00 5.000000000000000000e+00 3.529411764705882248e+00
2.941176470588235503e+00 5.000000000000000000e+00 3.529411764705882248e+00
3.235294117647058876e+00 5.000000000000000000e+00 3.529411764705882248e+00
3.529411764705882248e+00 5.000000000000000000e+00 3.529411764705882248e+00
3.823529411764706065e+00 5.000000000000000000e+00 3.529411764705882248e+00
4.117647058823529882e+00 5.000000000000000000e+00 3.529411764705882248e+00
4.411764705882353255e+00 5.000000000000000000e+00 3.529411764705882248e+00
4.705882352941176627e+00 5.000000000000000000e+00 3.529411764705882248e+00
5.000000000000000000e+00 5.000000000000000000e+00 3.529411764705882248e+00
0.000000000000000000e+00 5.000000000000000000e+00 3.823529411764706065e+00
2.941176470588235392e-01 5.000000000000000000e+00 3.823529411764706065e+00
5.882352941176470784e-01 5.000000000000000000e+00 3.823529411764706065e+00
8.823529411764705621e-01 5.000000000000000000e+00 3.823529411764706065e+00
1.176470588235294157e+00 5.000000000000000000e+00 3.823529411764706065e+00
1.470588235294117752e+00 5.000000000000000000e+00 3.823529411764706065e+00
1.764705882352941124e+00 5.000000000000000000e+00 3.823529411764706065e+00
2.058823529411764941e+00 5.000000000000000000e+00 3.823529411764706065e+00
2.352941176470588314e+00 5.000000000000000000e+00 3.823529411764706065e+00
2.647058823529411686e+00 5.000000000000000000e+00 3.823529411764706065e+00
2.941176470588235503e+00 5.000000000000000000e+00 3.823529411764706065e+00
3.235294117647058876e+00 5.000000000000000000e+00 3.823529411764706065e+00
3.529411764705882248e+00 5.000000000000000000e+00 3.823529411764706065e+00
3.823529411764706065e+00 5.000000000000000000e+00 3.823529411764706065e+00
4.117647058823529882e+00 5.000000000000000000e+00 3.823529411764706065e+00
4.411764705882353255e+00 5.000000000000000000e+00 3.823529411764706065e+00
4.705882352941176627e+00 5.000000000000000000e+00 3.823529411764706065e+00
5.000000000000000000e+00 5.000000000000000000e+00 3.823529411764706065e+00
0.000000000000000000e+00 5.000000000000000000e+00 4.117647058823529882e+00
2.941176470588235392e-01 5.000000000000000000e+00 4.117647058823529882e+00
5.882352941176470784e-01 5.000000000000000000e+00 4.117647058823529882e+00
8.823529411764705621e-01 5.000000000000000000e+00 4.117647058823529882e+00
1.176470588235294157e+00 5.000000000000000000e+00 4.117647058823529882e+00
1.470588235294117752e+00 5.000000000000000000e+00 4.117647058823529882e+00
1.764705882352941124e+00 5.000000000000000000e+00 4.117647058823529882e+00
2.058823529411764941e+00 5.000000000000000000e+00 4.117647058823529882e+00
2.352941176470588314e+00 5.000000000000000000e+00 4.117647058823529882e+00
2.647058823529411686e+00 5.000000000000000000e+00 4.117647058823529882e+00
2.941176470588235503e+00 5.000000000000000000e+00 4.117647058823529882e+00
3.235294117647058876e+00 5.000000000000000000e+00 4.117647058823529882e+00
3.529411764705882248e+00 5.000000000000000000e+00 4.117647058823529882e+00
3.823529411764706065e+00 5.000000000000000000e+00 4.117647058823529882e+00
4.117647058823529882e+00 5.000000000000000000e+00 4.117647058823529882e+00
4.411764705882353255e+00 5.000000000000000000e+00 4.117647058823529882e+00
4.705882352941176627e+00 5.000000000000000000e+00 4.117647058823529882e+00
5.000000000000000000e+00 5.000000000000000000e+00 4.117647058823529882e+00
0.000000000000000000e+00 5.000000000000000000e+00 4.411764705882353255e+00
2.941176470588235392e-01 5.000000000000000000e+00 4.411764705882353255e+00
5.882352941176470784e-01 5.000000000000000000e+00 4.411764705882353255e+00
8.823529411764705621e-01 5.000000000000000000e+00 4.411764705882353255e+00
1.176470588235294157e+00 5.000000000000000000e+00 4.411764705882353255e+00
1.470588235294117752e+00 5.000000000000000000e+00 4.411764705882353255e+00
1.764705882352941124e+00 5.000000000000000000e+00 4.411764705882353255e+00
2.058823529411764941e+00 5.000000000000000000e+00 4.411764705882353255e+00
2.352941176470588314e+00 5.000000000000000000e+00 4.411764705882353255e+00
2.647058823529411686e+00 5.000000000000000000e+00 4.411764705882353255e+00
2.941176470588235503e+00 5.000000000000000000e+00 4.411764705882353255e+00
3.235294117647058876e+00 5.000000000000000000e+00 4.411764705882353255e+00
3.529411764705882248e+00 5.000000000000000000e+00 4.411764705882353255e+00
3.823529411764706065e+00 5.000000000000000000e+00 4.411764705882353255e+00
4.117647058823529882e+00 5.000000000000000000e+00 4.411764705882353255e+00
4.411764705882353255e+00 5.000000000000000000e+00 4.411764705882353255e+00
4.705882352941176627e+00 5.000000000000000000e+00 4.411764705882353255e+00
5.000000000000000000e+00 5.000000000000000000e+00 4.411764705882353255e+00
0.000000000000000000e+00 5.000000000000000000e+00 4.705882352941176627e+00
2.941176470588235392e-01 5.000000000000000000e+00 4.705882352941176627e+00
5.882352941176470784e-01 5.000000000000000000e+00 4.705882352941176627e+00
8.823529411764705621e-01 5.000000000000000000e+00 4.705882352941176627e+00
1.176470588235294157e+00 5.000000000000000000e+00 4.705882352941176627e+00
1.470588235294117752e+00 5.000000000000000000e+00 4.705882352941176627e+00
1.764705882352941124e+00 5.000000000000000000e+00 4.705882352941176627e+00
2.058823529411764941e+00 5.000000000000000000e+00 4.705882352941176627e+00
2.352941176470588314e+00 5.000000000000000000e+00 4.705882352941176627e+00
2.647058823529411686e+00 5.000000000000000000e+00 4.705882352941176627e+00
2.941176470588235503e+00 5.000000000000000000e+00 4.705882352941176627e+00
3.235294117647058876e+00 5.000000000000000000e+00 4.705882352941176627e+00
3.529411764705882248e+00 5.000000000000000000e+00 4.705882352941176627e+00
3.823529411764706065e+00 5.000000000000000000e+00 4.705882352941176627e+00
4.117647058823529882e+00 5.000000000000000000e+00 4.705882352941176627e+00
4.411764705882353255e+00 5.000000000000000000e+00 4.705882352941176627e+00
4.705882352941176627e+00 5.000000000000000000e+00 4.705882352941176627e+00
5.000000000000000000e+00 5.000000000000000000e+00 4.705882352941176627e+00
0.000000000000000000e+00 5.000000000000000000e+00 5.000000000000000000e+00
2.941176470588235392e-01 5.000000000000000000e+00 5.000000000000000000e+00
5.882352941176470784e-01 5.000000000000000000e+00 5.000000000000000000e+00
8.823529411764705621e-01 5.000000000000000000e+00 5.000000000000000000e+00
1.176470588235294157e+00 5.000000000000000000e+00 5.000000000000000000e+00
1.470588235294117752e+00 5.000000000000000000e+00 5.000000000000000000e+00
1.764705882352941124e+00 5.000000000000000000e+00 5.000000000000000000e+00
2.058823529411764941e+00 5.000000000000000000e+00 5.000000000000000000e+00
2.352941176470588314e+00 5.000000000000000000e+00 5.000000000000000000e+00
2.647058823529411686e+00 5.000000000000000000e+00 5.000000000000000000e+00
2.941176470588235503e+00 5.000000000000000000e+00 5.000000000000000000e+00
3.235294117647058876e+00 5.000000000000000000e+00 5.000000000000000000e+00
